# .PCD v0.7 - Point Cloud Data file format
VERSION 0.7
FIELDS x y z rgba
SIZE 4 4 4 4
TYPE F F F U
COUNT 1 1 1 1
WIDTH 1073
HEIGHT 1
VIEWPOINT 0 0 0 1 0 0 0
POINTS 1073
DATA ascii
-0.37376142 2.6648922 -0.27509511 4278190080
-0.080436572 2.7103899 -0.29883465 4278190080
-0.17823517 2.6878045 -0.32296956 4278190080
-0.27467769 2.6635137 -0.34676674 4278190080
-0.37461251 2.6808248 -0.37700608 4278190080
-0.079620875 2.721348 -0.40178293 4278190080
-0.17666876 2.6940935 -0.42419007 4278190080
-0.27605543 2.6874452 -0.45116955 4278190080
-0.37509373 2.6767693 -0.47878727 4278190080
-0.077724315 2.7165346 -0.50407851 4278190080
-0.17649433 2.697201 -0.52770543 4278190080
-0.27539814 2.6865816 -0.55451328 4278190080
-0.37403679 2.6699045 -0.5816105 4278190080
-0.075991318 2.7105732 -0.60816061 4278190080
-0.17543769 2.6991282 -0.63341463 4278190080
-0.27403742 2.6816123 -0.65915495 4278190080
-0.37528425 2.6750712 -0.69000059 4278190080
-0.073555008 2.7273209 -0.72110605 4278190080
-0.17558408 2.7175012 -0.74788702 4278190080
-0.27375779 2.6747215 -0.76716328 4278190080
-0.37164918 2.6401165 -0.79096359 4278190080
-0.07377626 2.7049778 0.82172799 4278190080
-0.1711774 2.631144 0.77057737 4278190080
-0.272708 2.6542025 0.75154817 4278190080
-0.3679035 2.617666 0.71735191 4278190080
-0.072742537 2.6773641 0.70270252 4278190080
-0.16958173 2.6264288 0.66250342 4278190080
-0.2686494 2.6400776 0.64087278 4278190080
-0.36521313 2.6237707 0.61270541 4278190080
-0.072498925 2.6821918 0.59799004 4278190080
-0.16990381 2.6552002 0.56519473 4278190080
-0.265701 2.6348441 0.53647381 4278190080
-0.36113885 2.6145484 0.50897962 4278190080
-0.071586087 2.6778362 0.49421236 4278190080
-0.16826548 2.6565149 0.46413434 4278190080
-0.26539582 2.6498849 0.43849292 4278190080
-0.35936156 2.6209154 0.4098663 4278190080
-0.071298935 2.6793485 0.39330655 4278190080
-0.16757761 2.6618555 0.36511359 4278190080
-0.26438725 2.653358 0.33931592 4278190080
-0.35890701 2.6333077 0.31281391 4278190080
-0.070207603 2.6859345 0.29501748 4278190080
-0.16715021 2.6714242 0.26768401 4278190080
-0.26303765 2.6590984 0.24186143 4278190080
-0.35515833 2.6153545 0.21374877 4278190080
-0.069004774 2.6829412 0.19633454 4278190080
-0.16511577 2.6665368 0.16925596 4278190080
-0.26226065 2.6611998 0.14463639 4278190080
-0.35111439 2.5967913 0.11628883 4278190080
-0.068515904 2.7043331 0.098675162 4278190080
-0.16578524 2.6819012 0.072567843 4278190080
-0.26037261 2.6548591 0.04642335 4278190080
-0.35784566 2.6538999 0.021126226 4294901760
-0.068061501 2.7201488 0.00033243289 4278190080
-0.16422778 2.6848602 -0.025587015 4294901760
-0.2612392 2.6636951 -0.053026531 4294901760
-0.35816884 2.6619098 -0.076947451 4294901760
-0.067087755 2.7153461 -0.099597603 4294901760
-0.16363478 2.6851628 -0.12399368 4294901760
-0.25885823 2.6643083 -0.14905012 4294901760
-0.35829508 2.6713142 -0.17637162 4278190080
-0.06532336 2.7149365 -0.19895363 4294901760
-0.16343966 2.6998107 -0.22384457 4278190080
-0.25868407 2.661068 -0.24703513 4278190080
-0.35766715 2.6691074 -0.27529851 4278190080
-0.063921362 2.7158008 -0.29938233 4278190080
-0.16209745 2.6947939 -0.32368383 4278190080
-0.25832951 2.665149 -0.34676674 4278190080
-0.35894254 2.6889632 -0.37783375 4278190080
-0.063035823 2.7267306 -0.40251294 4278190080
-0.15990043 2.6911824 -0.42356923 4278190080
-0.25984466 2.6920338 -0.4516637 4278190080
-0.35761705 2.6712127 -0.47739193 4278190080
-0.061010331 2.7149944 -0.50371373 4278190080
-0.1598832 2.6972535 -0.5275138 4278190080
-0.2590023 2.6891959 -0.55471438 4278190080
-0.35790688 2.6740873 -0.58203226 4278190080
-0.059336767 2.7100129 -0.60794181 4278190080
-0.15898724 2.7020977 -0.63387066 4278190080
-0.25794947 2.6871109 -0.66010511 4278190080
-0.35924941 2.6802044 -0.69074309 4278190080
-0.056597617 2.7170885 -0.71829522 4278190080
-0.15840006 2.7098634 -0.74550349 4278190080
-0.25688064 2.6715646 -0.76579136 4278190080
-0.35467586 2.6366463 -0.78925705 4278190080
-0.05719766 2.7063363 0.82201862 4278190080
-0.15531196 2.6369357 0.77197987 4278190080
-0.25613949 2.6529515 0.75073481 4278190080
-0.35029346 2.6083961 0.71420908 4278190080
-0.056374181 2.6806612 0.70346385 4278190080
-0.1542547 2.6409733 0.66592085 4278190080
-0.25272253 2.6445792 0.64157701 4278190080
-0.34949228 2.6288598 0.61338145 4278190080
-0.056060329 2.6835623 0.59820759 4278190080
-0.15360862 2.6561925 0.56519473 4278190080
-0.2489748 2.6305704 0.53528255 4278190080
-0.34560302 2.620609 0.50973701 4278190080
-0.055174094 2.6792083 0.49439377 4278190080
-0.15218721 2.6614313 0.46482143 4278190080
-0.24903913 2.6504812 0.43833047 4278190080
-0.34442723 2.6318898 0.41124427 4278190080
-0.054897923 2.6817141 0.39359692 4278190080
-0.15101689 2.6588769 0.36457109 4278190080
-0.24764007 2.6499918 0.33868474 4278190080
-0.34299877 2.6374302 0.31304771 4278190080
-0.053646192 2.6823397 0.29458091 4278190080
-0.15092364 2.6753798 0.26798254 4278190080
-0.24680874 2.6616538 0.24195157 4278190080
-0.33987245 2.6234152 0.21423307 4278190080
-0.052697454 2.6912911 0.19691822 4278190080
-0.14891779 2.6704891 0.16944565 4278190080
-0.24601874 2.6637533 0.14469039 4278190080
-0.33555752 2.6018693 0.11642183 4278190080
-0.051978681 2.7077003 0.098784514 4278190080
-0.14971514 2.6898546 0.072756819 4278190080
-0.24407779 2.6564066 0.04642335 4278190080
-0.34168243 2.6570375 0.021134114 4294901760
-0.051369701 2.7205153 0.00033243289 4278190080
-0.14775071 2.6858175 -0.025587015 4294901760
-0.2446157 2.662261 -0.052967105 4294901760
-0.34182891 2.6640573 -0.076947451 4294901760
-0.050388332 2.7137082 -0.099524319 4294901760
-0.14737442 2.6901059 -0.12417785 4294901760
-0.24232456 2.6638577 -0.14893892 4294901760
-0.34265694 2.6794012 -0.1767634 4278190080
-0.048735082 2.719275 -0.1992459 4294901760
-0.14660026 2.6957872 -0.22343218 4278190080
-0.24298301 2.6695466 -0.24767917 4278190080
-0.34052664 2.6653311 -0.27468833 4278190080
-0.047325484 2.7201173 -0.29982054 4278190080
-0.14572006 2.6987123 -0.32404098 4278190080
-0.24259894 2.6735976 -0.34766576 4278190080
-0.34231159 2.6901326 -0.37769583 4278190080
-0.04627014 2.7250876 -0.4022209 4278190080
-0.14348972 2.6940858 -0.42387968 4278190080
-0.24278933 2.6876833 -0.4506754 4278190080
-0.34109539 2.6723797 -0.4772175 4278190080
-0.044382405 2.717284 -0.50407851 4278190080
-0.14322604 2.6962235 -0.5271306 4278190080
-0.24249682 2.6907344 -0.55471438 4278190080
-0.34186342 2.679142 -0.58266491 4278190080
-0.042845685 2.7191069 -0.60991138 4278190080
-0.14281428 2.7108009 -0.63569474 4278190080
-0.24145682 2.688643 -0.66010511 4278190080
-0.34377977 2.6900468 -0.69272298 4278190080
-0.040024232 2.7241516 -0.72008389 4278190080
-0.14156823 2.7069323 -0.74444419 4278190080
-0.24039724 2.672133 -0.765517 4278190080
-0.33946687 2.6463804 -0.79153246 4278190080
-0.040619511 2.7085497 0.82259971 4278190080
-0.13872465 2.6301711 0.76973581 4278190080
-0.23907687 2.6458454 0.74829477 4278190080
-0.33452719 2.6124108 0.71473289 4278190080
-0.03989609 2.6790226 0.70295632 4278190080
-0.13804708 2.64187 0.66592085 4278190080
-0.23623136 2.6431756 0.64087278 4278190080
-0.33164081 2.6174228 0.61022663 4278190080
-0.039578844 2.6828797 0.59799004 4278190080
-0.13756004 2.6619697 0.56623375 4278190080
-0.23300196 2.6340013 0.53567964 4278190080
-0.33012876 2.6275513 0.51068372 4278190080
-0.038719527 2.6785131 0.49421236 4278190080
-0.13580391 2.6613312 0.46464968 4278190080
-0.23277138 2.6519594 0.43833047 4278190080
-0.32888287 2.6388569 0.41200981 4278190080
-0.038442202 2.6820004 0.39359692 4278190080
-0.13474959 2.660743 0.3647067 4278190080
-0.23154785 2.6534381 0.33893722 4278190080
-0.32717544 2.642442 0.31339842 4278190080
-0.037365768 2.6955395 0.2959998 4278190080
-0.13450497 2.6762555 0.26798254 4278190080
-0.23064424 2.6651027 0.24213186 4278190080
-0.32425708 2.6294084 0.21455598 4278190080
-0.036209822 2.6935585 0.19706415 4278190080
-0.13267754 2.6743429 0.16963533 4278190080
-0.22949815 2.6632228 0.14458236 4278190080
-0.32214212 2.6247022 0.11735284 4278190080
-0.035389666 2.7099667 0.098857425 4278190080
-0.13291112 2.684732 0.072594836 4278190080
-0.22785915 2.6588504 0.046440747 4278190080
-0.32488692 2.6551137 0.021102559 4294901760
-0.034663219 2.719779 0.00033231068 4278190080
-0.13131687 2.6876724 -0.025596527 4294901760
-0.22801968 2.6607237 -0.052907683 4294901760
-0.32474938 2.6601515 -0.076775633 4294901760
-0.03378607 2.7179632 -0.099670887 4294901760
-0.1307199 2.6879666 -0.12403973 4294901760
-0.22639662 2.6702688 -0.14921689 4294901760
-0.32560748 2.6765003 -0.17643692 4278190080
-0.032013748 2.716531 -0.1990267 4294901760
-0.13005647 2.696636 -0.22343218 4278190080
-0.22668257 2.6719794 -0.24777117 4278190080
-0.32404605 2.6663828 -0.27458662 4278190080
-0.030634267 2.7203565 -0.29982054 4278190080
-0.12925324 2.7015393 -0.32427907 4278190080
-0.22593884 2.6720712 -0.34728047 4278190080
-0.32484686 2.6843162 -0.37659222 4278190080
-0.029612798 2.7312558 -0.40309691 4278190080
-0.12690991 2.6939287 -0.42372444 4278190080
-0.22604531 2.6861737 -0.45018122 4278190080
-0.32647166 2.689085 -0.47983381 4278190080
-0.027818901 2.7283201 -0.50608456 4278190080
-0.12686382 2.700973 -0.52789706 4278190080
-0.22606415 2.6931479 -0.55491549 4278190080
-0.32530031 2.6802185 -0.58245397 4278190080
-0.026179524 2.7212698 -0.61034906 4278190080
-0.12604265 2.7087083 -0.63501072 4278190080
-0.22519793 2.6929779 -0.66081768 4278190080
-0.32738444 2.6930676 -0.69297051 4278190080
-0.023374571 2.7320802 -0.72212821 4278190080
-0.12504505 2.7096767 -0.7449739 4278190080
-0.22367567 2.6697245 -0.76441944 4278190080
-0.32345486 2.6503167 -0.7921012 4278190080
-0.024016352 2.7106616 0.82318085 4278190080
-0.12401316 2.6616545 0.77871227 4278190080
-0.22283776 2.6472626 0.74829477 4278190080
-0.32070887 2.6326165 0.71970904 4278190080
-0.023448694 2.6782496 0.70270252 4278190080
-0.12263817 2.6601043 0.67031473 4278190080
-0.21960574 2.6397319 0.63969904 4278190080
-0.31615701 2.6242449 0.61135334 4278190080
-0.023091033 2.6801438 0.59733742 4278190080
-0.12153532 2.6696036 0.56768829 4278190080
-0.21715713 2.6392884 0.53647381 4278190080
-0.31423306 2.6314776 0.51106244 4278190080
-0.022300111 2.6806667 0.49457517 4278190080
-0.1196484 2.6660509 0.46533674 4278190080
-0.21609366 2.6484203 0.43751812 4278190080
-0.31396312 2.6516201 0.41369396 4278190080
-0.021985034 2.6821856 0.39359692 4278190080
-0.11894952 2.6733971 0.36633426 4278190080
-0.21534246 2.6557975 0.33906347 4278190080
-0.3113035 2.6473587 0.31374907 4278190080
-0.020840904 2.697706 0.2962181 4278190080
-0.11781817 2.6710658 0.26738548 4278190080
-0.21380845 2.6605113 0.24159099 4278190080
-0.30927643 2.6412482 0.21536317 4278190080
-0.019667203 2.691735 0.19691822 4278190080
-0.11639559 2.678098 0.169825 4278190080
-0.21275449 2.6596041 0.14431232 4278190080
-0.30822787 2.6454833 0.1181952 4278190080
-0.018726366 2.7051361 0.098675162 4278190080
-0.11626221 2.6815023 0.072486848 4278190080
-0.21154046 2.6601985 0.046440747 4278190080
-0.30847394 2.6560638 0.021094669 4294901760
-0.017947884 2.7159407 0.000331822 4278190080
-0.11503649 2.6934226 -0.025644086 4294901760
-0.21200652 2.6660593 -0.052986916 4294901760
-0.30888104 2.6660657 -0.076890185 4294901760
-0.017114615 2.7191188 -0.099707536 4294901760
-0.11430918 2.6907139 -0.12413181 4294901760
-0.21000791 2.6716075 -0.14921689 4294901760
-0.30929306 2.6794391 -0.17650221 4278190080
-0.015378623 2.7226601 -0.19946508 4294901760
-0.11367537 2.7013659 -0.22376208 4278190080
-0.20997101 2.6693492 -0.24740314 4278190080
-0.30779329 2.6693091 -0.27468833 4278190080
-0.013967365 2.7254629 -0.30036825 4278190080
-0.11259174 2.7002974 -0.32404098 4278190080
-0.20953906 2.6734073 -0.34728047 4278190080
-0.30825713 2.6852748 -0.37645429 4278190080
-0.012867537 2.7343538 -0.40353489 4278190080
-0.11045876 2.696631 -0.42403489 4278190080
-0.20955899 2.6875103 -0.45018122 4278190080
-0.30940223 2.6861463 -0.47896171 4278190080
-0.011093689 2.7323723 -0.50681406 4278190080
-0.1104487 2.7056234 -0.52866352 4278190080
-0.20968695 2.6964376 -0.55531776 4278190080
-0.30907232 2.6841063 -0.58287579 4278190080
-0.009457835 2.7145491 -0.60881716 4278190080
-0.10957711 2.7133219 -0.63592273 4278190080
-0.20866989 2.694309 -0.66081768 4278190080
-0.31063187 2.6931005 -0.6924755 4278190080
-0.0066033839 2.7292717 -0.72136158 4278190080
-0.10841642 2.710393 -0.7449739 4278190080
-0.20706713 2.6681705 -0.76359636 4278190080
-0.30707645 2.6512992 -0.79181683 4278190080
-0.007388805 2.7126715 0.823762 4278190080
-0.10864896 2.686342 0.78572518 4278190080
-0.20703937 2.6543376 0.74992144 4278190080
-0.30521438 2.6402872 0.72128046 4278190080
-0.0070148231 2.6783431 0.70270252 4278190080
-0.1066235 2.6685586 0.67226762 4278190080
-0.20332989 2.6400604 0.63946432 4278190080
-0.30148676 2.6387191 0.61428279 4278190080
-0.0066552255 2.6841395 0.59820759 4278190080
-0.10538358 2.6761637 0.56893504 4278190080
-0.20103303 2.6415484 0.53667235 4278190080
-0.29808071 2.6333561 0.51106244 4278190080
-0.0058535766 2.6817367 0.49475664 4278190080
-0.1037451 2.6785479 0.46739805 4278190080
-0.20013602 2.6536322 0.43816799 4278190080
-0.29768717 2.6534967 0.41369396 4278190080
-0.005518883 2.6783123 0.39301616 4278190080
-0.1023538 2.6691265 0.36565611 4278190080
-0.19896865 2.6560795 0.33893722 4278190080
-0.29538354 2.65218 0.31409976 4278190080
-0.0042829597 2.6948011 0.29589066 4278190080
-0.10153984 2.6747215 0.26768401 4278190080
-0.1977009 2.6647527 0.24186143 4278190080
-0.29526111 2.6629095 0.2169776 4278190080
-0.0031541577 2.6947973 0.1971371 4278190080
-0.099737599 2.6727777 0.16944565 4278190080
-0.19643146 2.6608596 0.14431232 4278190080
-0.29286587 2.6552687 0.11854987 4278190080
-0.0021307545 2.7091978 0.098820977 4278190080
-0.099880971 2.6841629 0.072540842 4278190080
-0.19536011 2.6634407 0.046475548 4278190080
-0.29337275 2.6688404 0.021181447 4294901760
-0.0012833199 2.717 0.0003319442 4278190080
-0.098544322 2.6950769 -0.025653597 4294901760
-0.19535135 2.6633215 -0.052907683 4294901760
-0.2924076 2.6669171 -0.076861538 4294901760
-0.00042977667 2.7171741 -0.099634245 4294901760
-0.097978503 2.6963561 -0.12436203 4294901760
-0.19361126 2.6728458 -0.14921689 4294901760
-0.29262984 2.6793027 -0.17637162 4278190080
0.0013290527 2.7256951 -0.19968428 4294901760
-0.096883222 2.6960368 -0.22326721 4278190080
-0.19351625 2.6695943 -0.24731115 4278190080
-0.29043791 2.6622469 -0.27377301 4278190080
0.0027489886 2.7185395 -0.29960144 4278190080
-0.095950358 2.6989527 -0.32380286 4278190080
-0.19355993 2.6805775 -0.34805104 4278190080
-0.29188171 2.6881003 -0.37659222 4278190080
0.0039018958 2.7284455 -0.40265891 4278190080
-0.09411671 2.7031815 -0.42496616 4278190080
-0.19306479 2.6887455 -0.45018122 4278190080
-0.29216784 2.6811421 -0.47774076 4278190080
0.0056720399 2.7323887 -0.50681406 4278190080
-0.09364114 2.7003648 -0.5275138 4278190080
-0.19299805 2.6957192 -0.55491549 4278190080
-0.29270297 2.686924 -0.58308667 4278190080
0.0072062653 2.7174833 -0.60947371 4278190080
-0.092826463 2.711024 -0.63523871 4278190080
-0.19171961 2.6897252 -0.65939248 4278190080
-0.29441682 2.6978452 -0.69321793 4278190080
0.010121678 2.72346 -0.71982843 4278190080
-0.092044748 2.7187171 -0.74709249 4278190080
-0.19034904 2.6645949 -0.76222444 4278190080
-0.29017586 2.6474154 -0.79011029 4278190080
0.0092690336 2.7164934 0.82492429 4278190080
-0.092032216 2.683121 0.78460312 4278190080
-0.18702482 2.6037142 0.73528093 4278190080
-0.28953281 2.6469069 0.72258997 4278190080
0.0094125094 2.6764011 0.70219499 4278190080
-0.090575218 2.6788545 0.67470866 4278190080
-0.18692087 2.6383495 0.63876003 4278190080
-0.28570881 2.6443939 0.61518413 4278190080
0.0098323142 2.6890099 0.5992952 4278190080
-0.089058444 2.6796927 0.56955844 4278190080
-0.18454751 2.6388214 0.53587818 4278190080
-0.28181267 2.6341593 0.51087314 4278190080
0.010613022 2.6846721 0.49530089 4278190080
-0.087243706 2.6771646 0.46705449 4278190080
-0.18344088 2.6489043 0.43719321 4278190080
-0.28098345 2.6513424 0.41308156 4278190080
0.010902941 2.6753278 0.39258063 4278190080
-0.086006306 2.6706944 0.36579171 4278190080
-0.18253143 2.6552711 0.33868474 4278190080
-0.28003937 2.662832 0.31515184 4278190080
0.012256628 2.6957705 0.2959998 4278190080
-0.085316017 2.6812615 0.26828107 4278190080
-0.18134657 2.6659155 0.24186143 4278190080
-0.27839741 2.6597142 0.21657398 4278190080
0.013375915 2.6937685 0.19706415 4278190080
-0.08324258 2.670347 0.16925596 4278190080
-0.18070768 2.6709812 0.14479841 4278190080
-0.27780908 2.6689396 0.11908188 4278190080
0.014524685 2.7151556 0.099039689 4278190080
-0.083347298 2.6827271 0.072486848 4278190080
-0.17901386 2.6645894 0.046475548 4278190080
-0.27709469 2.6715848 0.021189336 4294901760
0.015540819 2.7439561 0.00033524286 4278190080
-0.08221864 2.7026277 -0.025720183 4294901760
-0.17940794 2.670455 -0.053026531 4294901760
-0.27634674 2.6716437 -0.076947451 4294901760
0.016266393 2.7211227 -0.09978082 4294901760
-0.081552722 2.7009006 -0.1245462 4294901760
-0.1773394 2.6759763 -0.14932808 4294901760
-0.27690023 2.6879961 -0.17682871 4278190080
0.018073395 2.7286274 -0.19990347 4294901760
-0.080487221 2.7015615 -0.22367962 4278190080
-0.17772534 2.6796734 -0.24813919 4278190080
-0.27419901 2.6649685 -0.27387473 4278190080
0.019486414 2.726423 -0.30047777 4278190080
-0.079534024 2.704453 -0.3243981 4278190080
-0.17795818 2.6945789 -0.34972069 4278190080
-0.27528146 2.6888554 -0.37645429 4278190080
0.020703128 2.7362843 -0.40382686 4278190080
-0.077641793 2.7076581 -0.42558697 4278190080
-0.17675714 2.6928322 -0.4506754 4278190080
-0.27581182 2.6838641 -0.4779152 4278190080
0.02244563 2.7332859 -0.50699645 4278190080
-0.077126242 2.7028506 -0.52789706 4278190080
-0.1763259 2.6948979 -0.55451328 4278190080
-0.27611092 2.6876972 -0.58287579 4278190080
0.023888867 2.7183635 -0.60969251 4278190080
-0.07597141 2.7037563 -0.63341463 4278190080
-0.17508593 2.6889124 -0.65891743 4278190080
-0.27805603 2.7015288 -0.69371295 4278190080
0.026908524 2.7310805 -0.72187263 4278190080
-0.075387999 2.7201943 -0.74735731 4278190080
-0.17518584 2.6839447 -0.76743764 4278190080
-0.27382758 2.6481924 -0.78982592 4278190080
0.025973493 2.7202125 0.82608658 4278190080
-0.075540148 2.6826758 0.78432262 4278190080
-0.16990997 2.5875244 0.7304008 4278190080
-0.27318719 2.6476736 0.72232807 4278190080
0.025871769 2.680162 0.70321006 4278190080
-0.074297309 2.6851761 0.67617333 4278190080
-0.17085421 2.6413867 0.63922948 4278190080
-0.26957646 2.6470666 0.61540949 4278190080
0.026293352 2.6849949 0.59842509 4278190080
-0.072667457 2.6821444 0.56997395 4278190080
-0.16841491 2.640882 0.53607672 4278190080
-0.26584136 2.6377926 0.51125181 4278190080
0.027065819 2.68259 0.49493805 4278190080
-0.070815288 2.6776495 0.46705449 4278190080
-0.16699767 2.6470256 0.43670583 4278190080
-0.26431736 2.6490834 0.41246915 4278190080
0.027358649 2.679168 0.39316136 4278190080
-0.069488548 2.6662199 0.36511359 4278190080
-0.16635948 2.6583214 0.33893722 4278190080
-0.26369527 2.6645 0.31515184 4278190080
0.028818572 2.6976326 0.2962181 4278190080
-0.068888038 2.682729 0.26838058 4278190080
-0.16492391 2.6659842 0.24177128 4278190080
-0.26236552 2.6643484 0.21681614 4278190080
0.029904315 2.6936357 0.19706415 4278190080
-0.066806123 2.668812 0.16912952 4278190080
-0.16419286 2.6700463 0.14469039 4278190080
-0.26142755 2.670594 0.11908188 4278190080
0.031230204 2.7190125 0.099185497 4278190080
-0.066934645 2.6851866 0.072540842 4278190080
-0.16284356 2.6686313 0.046527747 4278190080
-0.26030871 2.6692538 0.021157781 4294901760
0.031633772 2.6808136 0.00032754597 4278190080
-0.06580399 2.7100787 -0.025786765 4294901760
-0.16301896 2.6715057 -0.053026531 4294901760
-0.25975516 2.6712995 -0.076890185 4294901760
0.033011004 2.7249689 -0.099927403 4294901760
-0.064882681 2.6973555 -0.12436203 4294901760
-0.16109632 2.6800039 -0.14949487 4294901760
-0.25944018 2.6797123 -0.17617573 4294901760
0.034891948 2.7344489 -0.20034185 4294901760
-0.063979939 2.7049932 -0.22392705 4278190080
-0.16116025 2.6787257 -0.24795519 4278190080
-0.2582249 2.6705616 -0.2742815 4278190080
0.036188662 2.7242644 -0.3002587 4278190080
-0.063007608 2.7078679 -0.32475525 4278190080
-0.16153976 2.6976001 -0.34997755 4278190080
-0.25858814 2.6885223 -0.37617841 4278190080
0.03750582 2.7370951 -0.40397289 4278190080
-0.061093222 2.7110465 -0.42605263 4278190080
-0.16028948 2.6948507 -0.45084015 4278190080
-0.26028526 2.695307 -0.47965941 4278190080
0.039202228 2.7321134 -0.50681406 4278190080
-0.060584363 2.7052355 -0.52828032 4278190080
-0.159787 2.6959291 -0.55451328 4278190080
-0.2598961 2.6922596 -0.58350843 4278190080
0.04064079 2.7230442 -0.61078674 4278190080
-0.05938004 2.7041717 -0.63341463 4278190080
-0.1586981 2.6918752 -0.65939248 4278190080
-0.26063496 2.6945045 -0.69148552 4278190080
0.043758355 2.7366641 -0.72340584 4278190080
-0.058570985 2.7148216 -0.74576837 4278190080
-0.15808998 2.6744096 -0.76441944 4278190080
-0.25775892 2.651731 -0.79039472 4278190080
0.042708933 2.7228723 0.8269583 4278190080
-0.058993615 2.67925 0.7832005 4278190080
-0.15391566 2.5865965 0.72985852 4278190080
-0.25684309 2.6483395 0.72206616 4278190080
0.042408071 2.6857557 0.70473272 4278190080
-0.057799101 2.6846118 0.67592919 4278190080
-0.15492772 2.6472373 0.64040327 4278190080
-0.25379309 2.6535201 0.6165362 4278190080
0.042736582 2.682831 0.59799004 4278190080
-0.056167781 2.680584 0.56955844 4278190080
-0.15232034 2.6438229 0.53647381 4278190080
-0.24946627 2.6374192 0.51087314 4278190080
0.043541327 2.6833565 0.49511948 4278190080
-0.054404207 2.6790185 0.46722627 4278190080
-0.15148176 2.6608071 0.43881789 4278190080
-0.24796583 2.6496713 0.41231599 4278190080
0.043845721 2.6819174 0.39359692 4278190080
-0.053107891 2.6656055 0.36497799 4278190080
-0.1500452 2.659292 0.33893722 4278190080
-0.2466073 2.6581569 0.31421667 4278190080
0.045286804 2.6924355 0.29567236 4278190080
-0.052406389 2.6821065 0.26828107 4278190080
-0.14823027 2.6609795 0.24123041 4278190080
-0.24592085 2.6649156 0.21673544 4278190080
0.046465971 2.6953957 0.19721006 4278190080
-0.050617862 2.6791501 0.16976178 4278190080
-0.1481377 2.6769855 0.14501445 4278190080
-0.24530986 2.6751323 0.11921488 4278190080
0.047719464 2.7077785 0.098784514 4278190080
-0.050645173 2.6955414 0.072810814 4278190080
-0.14646608 2.6695802 0.046527747 4278190080
-0.24392559 2.6708009 0.021157781 4294901760
0.047633976 2.6555729 0.00032449164 4278190080
-0.049192157 2.7114313 -0.025796277 4294901760
-0.14695247 2.6784453 -0.053145379 4294901760
-0.24372202 2.6768248 -0.077004731 4294901760
0.049803421 2.7287116 -0.10007398 4294901760
-0.048330802 2.6977029 -0.12436203 4294901760
-0.14464909 2.6809418 -0.14949487 4294901760
-0.24362333 2.6882102 -0.17663281 4294901760
0.051820308 2.7421606 -0.20092638 4294901760
-0.047398657 2.7063315 -0.22400951 4278190080
-0.14461346 2.6776755 -0.24777117 4278190080
-0.24201313 2.6740773 -0.2744849 4278190080
0.052845847 2.7210097 -0.29993007 4278190080
-0.046408262 2.7091963 -0.32487428 4278190080
-0.14487815 2.6965599 -0.34972069 4278190080
-0.24217558 2.6910448 -0.37631637 4278190080
0.054181866 2.7308788 -0.40309691 4278190080
-0.044538386 2.7163091 -0.42682868 4278190080
-0.14385621 2.6977532 -0.45116955 4278190080
-0.2431218 2.6899884 -0.47843844 4278190080
0.056005701 2.7337875 -0.50717884 4278190080
-0.043936349 2.7026124 -0.52770543 4278190080
-0.14350185 2.7017496 -0.55551893 4278190080
-0.24328385 2.6928298 -0.58329749 4278190080
0.057327766 2.7217681 -0.61056793 4278190080
-0.042878848 2.7103264 -0.63478267 4278190080
-0.14269024 2.7024987 -0.66176778 4278190080
-0.24435897 2.6989477 -0.69222802 4278190080
0.06061355 2.7392437 -0.72417241 4278190080
-0.042001352 2.7209148 -0.74735731 4278190080
-0.141728 2.6762898 -0.76469386 4278190080
-0.2422654 2.6618557 -0.7929545 4278190080
0.059373606 2.7206457 0.82637709 4278190080
-0.042690106 2.6881993 0.78572518 4278190080
-0.13983646 2.6211336 0.73934776 4278190080
-0.23997749 2.6431377 0.7202329 4278190080
0.058886763 2.6854448 0.70473272 4278190080
-0.041280773 2.6820068 0.67519689 4278190080
-0.13878332 2.6500795 0.64087278 4278190080
-0.2372462 2.6521161 0.61586016 4278190080
0.059197322 2.6825185 0.59799004 4278190080
-0.039646514 2.6759877 0.56851941 4278190080
-0.13649821 2.6525381 0.53806216 4278190080
-0.23379746 2.644769 0.51200926 4278190080
0.060115214 2.6879547 0.49602664 4278190080
-0.037895247 2.6743767 0.46636739 4278190080
-0.13560285 2.6705554 0.44028002 4278190080
-0.23178913 2.6521275 0.41246915 4278190080
0.060478773 2.6895111 0.3947584 4278190080
-0.036805671 2.6698439 0.36552048 4278190080
-0.13387468 2.6631348 0.33931592 4278190080
-0.23020683 2.6586304 0.31409976 4278190080
0.061920505 2.6970758 0.2962181 4278190080
-0.036028311 2.6883473 0.26887816 4278190080
-0.1324915 2.6737757 0.24231216 4278190080
-0.2294791 2.665381 0.2166547 4278190080
0.062980428 2.6940629 0.1971371 4278190080
-0.034216143 2.682404 0.16995145 4278190080
-0.13175829 2.6788414 0.14506845 4278190080
-0.22838022 2.6706147 0.11894888 4278190080
0.063146226 2.6574821 0.096961923 4278190080
-0.034079399 2.6938024 0.072756819 4278190080
-0.12983985 2.6654356 0.046440747 4278190080
-0.22778778 2.6752365 0.021181447 4294901760
0.062001847 2.575254 0.00031471779 4278190080
-0.032494184 2.7066824 -0.025748717 4294901760
-0.13036913 2.6763008 -0.053085953 4294901760
-0.22661655 2.6703019 -0.076775633 4294901760
0.066301875 2.7183642 -0.099707536 4294901760
-0.031800628 2.6999462 -0.12445411 4294901760
-0.12795803 2.6767924 -0.14921689 4294901760
-0.2268723 2.6866715 -0.17643692 4294901760
0.068570025 2.7387998 -0.20070718 4294901760
-0.030758014 2.7035816 -0.22376208 4278190080
-0.12784764 2.67155 -0.24712713 4278190080
-0.22576793 2.6774945 -0.27468833 4278190080
0.069591455 2.7226217 -0.30014917 4278190080
-0.029794985 2.7104228 -0.32499331 4278190080
-0.12832963 2.6973979 -0.34972069 4278190080
-0.22508004 2.6855712 -0.37535074 4278190080
0.070962898 2.7314839 -0.40324289 4278190080
-0.027870588 2.7165313 -0.42682868 4278190080
-0.1274863 2.7025261 -0.45182842 4278190080
-0.22702485 2.6963356 -0.47931054 4278190080
0.07272651 2.7314267 -0.50681406 4278190080
-0.027432058 2.7106824 -0.52923834 4278190080
-0.12701343 2.7045362 -0.5559212 4278190080
-0.22683838 2.6952462 -0.58350843 4278190080
0.074027143 2.721365 -0.61056793 4278190080
-0.02624779 2.7105384 -0.63478267 4278190080
-0.12615061 2.7042937 -0.66200536 4278190080
-0.22803827 2.7032926 -0.69297051 4278190080
0.077556692 2.7436526 -0.7254501 4278190080
-0.025323275 2.7230499 -0.74788702 4278190080
-0.12566359 2.6847935 -0.76688886 4278190080
-0.22560386 2.659471 -0.79181683 4278190080
0.07611955 2.7221432 0.8269583 4278190080
-0.026250932 2.6941695 0.78740829 4278190080
-0.12511224 2.6507864 0.74748141 4278190080
-0.22367361 2.6435986 0.71997094 4278190080
0.075308956 2.683099 0.70422518 4278190080
-0.02485941 2.6860888 0.67617333 4278190080
-0.12252013 2.6508813 0.64087278 4278190080
-0.22113037 2.6554637 0.61631089 4278190080
0.075655833 2.6821046 0.59799004 4278190080
-0.023217728 2.6752026 0.56831163 4278190080
-0.12017562 2.6523466 0.53786361 4278190080
-0.21788689 2.650068 0.51276666 4278190080
0.076747164 2.6924503 0.49693376 4278190080
-0.021484869 2.6745589 0.46636739 4278190080
-0.1190821 2.6683798 0.43979263 4278190080
-0.21599159 2.6594095 0.41338775 4278190080
0.076810293 2.6831553 0.39388728 4278190080
-0.020445859 2.6729915 0.36592737 4278190080
-0.11757519 2.6648972 0.33944216 4278190080
-0.21388945 2.6599929 0.31409976 4278190080
0.078381546 2.6936643 0.29589066 4278190080
-0.019575618 2.6944878 0.26947522 4278190080
-0.11565118 2.6645882 0.2414107 4278190080
-0.21288212 2.6637585 0.21641256 4278190080
0.07953912 2.6946225 0.19721006 4278190080
-0.017756579 2.6825633 0.16995145 4278190080
-0.11531875 2.6795995 0.14506845 4278190080
-0.21206833 2.6729617 0.11899321 4278190080
0.071147516 2.3793538 0.086828314 4278190080
-0.017543387 2.6929612 0.072729826 4278190080
-0.11378024 2.6731746 0.046562549 4278190080
-0.21105365 2.6725965 0.021149892 4278190080
0.071791805 2.3759158 0.00029040535 4278190080
-0.015891548 2.7078311 -0.025758229 4294901760
-0.11420031 2.6830437 -0.053204805 4294901760
-0.21046284 2.6746316 -0.076861538 4294901760
0.083193667 2.7248983 -0.099964045 4294901760
-0.015244741 2.7020884 -0.1245462 4294901760
-0.11173891 2.6825151 -0.14949487 4294901760
-0.21077222 2.692987 -0.1767634 4294901760
0.085062906 2.7283592 -0.19997655 4294901760
-0.014179015 2.7057128 -0.22392705 4278190080
-0.11166039 2.6772587 -0.24758717 4278190080
-0.20910236 2.675854 -0.27438322 4278190080
0.086358823 2.7241302 -0.30036825 4278190080
-0.013168406 2.7115476 -0.3251124 4278190080
-0.11173525 2.6971438 -0.34959224 4278190080
-0.20944074 2.6977639 -0.37686813 4278190080
0.087658115 2.7290196 -0.40295091 4278190080
-0.011181373 2.7117116 -0.42605263 4278190080
-0.11082066 2.7012866 -0.45149902 4278190080
-0.21062936 2.6996415 -0.47965941 4278190080
0.08958146 2.7338772 -0.50736117 4278190080
-0.010803018 2.7117813 -0.52942997 4278190080
-0.11041632 2.7052646 -0.5559212 4278190080
-0.21029639 2.6965873 -0.58350843 4278190080
0.090821281 2.7237854 -0.61122447 4278190080
-0.0096088368 2.7087011 -0.63432664 4278190080
-0.10927984 2.6982229 -0.66034263 4278190080
-0.21122032 2.7017431 -0.69222802 4278190080
0.094290219 2.7402263 -0.72468352 4278190080
-0.0086053275 2.7202611 -0.74709249 4278190080
-0.10907045 2.6826315 -0.76606572 4278190080
-0.20883037 2.6550705 -0.79011029 4278190080
0.092723027 2.718756 0.82608658 4278190080
-0.0097331759 2.6981192 0.78853035 4278190080
-0.10959507 2.6697769 0.75263268 4278190080
-0.20601478 2.6266406 0.71499479 4278190080
0.091869935 2.6854866 0.70498651 4278190080
-0.0083895074 2.6900697 0.67714977 4278190080
-0.10636909 2.6544969 0.64157701 4278190080
-0.20423345 2.6489995 0.61450815 4278190080
0.092279032 2.6864674 0.5990777 4278190080
-0.0068025575 2.6752946 0.56831163 4278190080
-0.10409064 2.6579309 0.53885639 4278190080
-0.20132446 2.6474388 0.51200926 4278190080
0.093266279 2.6919286 0.49693376 4278190080
-0.0050830217 2.6795659 0.46722627 4278190080
-0.10282081 2.6720183 0.44028002 4278190080
-0.19929995 2.6557577 0.41262224 4278190080
0.093100481 2.6776896 0.39316136 4278190080
-0.0040398086 2.6700945 0.36552048 4278190080
-0.10125912 2.6665597 0.33956838 4278190080
-0.19763754 2.6622458 0.31421667 4278190080
0.094873071 2.6921391 0.29578149 4278190080
-0.0030354424 2.688587 0.26887816 4278190080
-0.099225231 2.6632571 0.24123041 4278190080
-0.19682682 2.6689906 0.21673544 4278190080
0.09603598 2.6930873 0.1971371 4278190080
-0.0012968272 2.6836197 0.17001468 4278190080
-0.098727621 2.6762652 0.14485241 4278190080
-0.19580917 2.6762054 0.11908188 4278190080
0.085421637 2.369884 0.08650025 4278190080
-0.001019735 2.6940176 0.072756819 4278190080
-0.097521357 2.6778193 0.046632148 4278190080
-0.19428791 2.6688542 0.021110447 4278190080
0.085133404 2.3414531 0.00028625148 4278190080
0.00072342262 2.7068775 -0.025748717 4294901760
-0.097698927 2.6826949 -0.053184997 4294901760
-0.19419225 2.6778667 -0.076918818 4294901760
0.10042451 2.7383177 -0.10047705 4294901760
0.0013372228 2.7061267 -0.12473037 4294901760
-0.095348075 2.6851461 -0.14960606 4294901760
-0.19460319 2.6992061 -0.1770899 4294901760
0.10180221 2.7277858 -0.19997655 4294901760
0.0024267638 2.7097352 -0.22425695 4278190080
-0.095549427 2.6868496 -0.2484152 4278190080
-0.19303676 2.6820478 -0.2748917 4278190080
0.10303456 2.7225559 -0.3002587 4278190080
0.0034721266 2.713563 -0.32535046 4278190080
-0.095218748 2.6987698 -0.34972069 4278190080
-0.19351904 2.7078896 -0.37810966 4278190080
0.10432576 2.7264531 -0.40265891 4278190080
0.005459575 2.7127171 -0.42620781 4278190080
-0.094312556 2.703887 -0.45182842 4278190080
-0.19356672 2.6940076 -0.47843844 4278190080
0.10627808 2.7313111 -0.50699645 4278190080
0.0058258004 2.7068892 -0.52847189 4278190080
-0.093781114 2.7049124 -0.55572009 4278190080
-0.1938865 2.6997769 -0.58393013 4278190080
0.1075324 2.7231767 -0.61122447 4278190080
0.0070166625 2.7106564 -0.63478267 4278190080
-0.092821859 2.701755 -0.66105527 4278190080
-0.19477794 2.704921 -0.69272298 4278190080
0.11165062 2.7531202 -0.72826087 4278190080
0.0080688437 2.7144768 -0.74550349 4278190080
-0.092508577 2.680367 -0.76524258 4278190080
-0.19274315 2.6591706 -0.79096359 4278190080
0.10921084 2.7133553 0.82463372 4278190080
0.0068175006 2.6962082 0.78796929 4278190080
-0.093480192 2.6780951 0.75480169 4278190080
-0.18857254 2.6095662 0.71001863 4278190080
0.10838504 2.6858387 0.70524025 4278190080
0.0081107551 2.6881309 0.67666149 4278190080
-0.090277158 2.6609287 0.64298552 4278190080
-0.18804458 2.6511745 0.61473346 4278190080
0.10876115 2.6858506 0.5990777 4278190080
0.0096128695 2.6752861 0.56831163 4278190080
-0.087812267 2.6594989 0.53905493 4278190080
-0.18487096 2.6456857 0.51144117 4278190080
0.1095414 2.68541 0.49584517 4278190080
0.011354406 2.6785617 0.46705449 4278190080
-0.086359903 2.6706266 0.43995512 4278190080
-0.18306866 2.6579163 0.41277534 4278190080
0.10936694 2.6731136 0.39258063 4278190080
0.012320757 2.6651151 0.36484233 4278190080
-0.08505331 2.6720884 0.34019956 4278190080
-0.18096136 2.6584539 0.31363219 4278190080
0.11130774 2.6895201 0.29556322 4278190080
0.01347642 2.69154 0.26917669 4278190080
-0.082819976 2.6618249 0.24105011 4278190080
-0.18098412 2.6781037 0.21738119 4278190080
0.11251699 2.6914508 0.19706415 4278190080
0.015186503 2.6865711 0.17020436 4278190080
-0.08224313 2.6748245 0.1447444 4278190080
-0.17965172 2.6813436 0.11925922 4278190080
0.10219396 2.4222331 0.088432193 4278190080
0.015527732 2.6969721 0.072837815 4278190080
-0.08105848 2.6773677 0.046614747 4278190080
-0.17784201 2.6689985 0.021102559 4278190080
0.098437019 2.3159089 0.00028319712 4278190080
0.017390123 2.7158215 -0.025834324 4294901760
-0.081236377 2.683244 -0.053184997 4294901760
-0.17775752 2.6790078 -0.076918818 4294901760
0.11675435 2.7266674 -0.10007398 4294901760
0.017948302 2.7070665 -0.12477641 4294901760
-0.078870535 2.6856804 -0.14960606 4294901760
-0.17777492 2.6963665 -0.17682871 4294901760
0.11875421 2.7320917 -0.20034185 4294901760
0.019067356 2.7116625 -0.22442192 4294901760
-0.079149276 2.6903713 -0.24869122 4278190080
-0.17664173 2.6841745 -0.27499342 4278190080
0.11965054 2.7198863 -0.30003962 4278190080
0.020136897 2.7154765 -0.32558855 4278190080
-0.07851319 2.6943469 -0.34907854 4278190080
-0.17638378 2.7011192 -0.37700608 4278190080
0.12118467 2.7287266 -0.40309691 4278190080
0.022112442 2.7136204 -0.42636305 4278190080
-0.077805042 2.7073727 -0.4523226 4278190080
-0.1774202 2.70104 -0.47948498 4278190080
0.12299082 2.7296252 -0.50681406 4278190080
0.022499925 2.7146537 -0.5300048 4278190080
-0.077154383 2.7044575 -0.55551893 4278190080
-0.17699717 2.6960387 -0.58287579 4278190080
0.12446189 2.7273393 -0.61231863 4278190080
0.023691278 2.7154305 -0.63592273 4278190080
-0.076215051 2.7013025 -0.66081768 4278190080
-0.17843182 2.7099326 -0.69371295 4278190080
0.12885706 2.7591436 -0.73004961 4278190080
0.02481224 2.7240188 -0.74815184 4278190080
-0.076224044 2.6866517 -0.76688886 4278190080
-0.17616941 2.656477 -0.78982592 4278190080
0.12612371 2.718369 0.82637709 4278190080
0.023410894 2.7018745 0.78965241 4278190080
-0.077073619 2.6795802 0.75507277 4278190080
-0.17128399 2.5914145 0.70478058 4278190080
0.12522244 2.6928532 0.7072705 4278190080
0.024569159 2.6841516 0.67568511 4278190080
-0.074029304 2.6643474 0.64368981 4278190080
-0.17171077 2.6513064 0.61450815 4278190080
0.12542108 2.6890328 0.59994781 4278190080
0.026037451 2.6761546 0.56851941 4278190080
-0.071492232 2.6599877 0.53905493 4278190080
-0.16832168 2.6418705 0.51049441 4278190080
0.12601671 2.6846874 0.49584517 4278190080
0.027769098 2.6764715 0.46671098 4278190080
-0.069894105 2.6681471 0.43946773 4278190080
-0.16663286 2.6570172 0.41246915 4278190080
0.12418541 2.6387897 0.38764432 4278190080
0.028726662 2.6699429 0.36552048 4278190080
-0.068477757 2.6656182 0.33931592 4278190080
-0.16483007 2.662488 0.31398287 4278190080
0.12610915 2.6530418 0.29163402 4278190080
0.029991146 2.6914067 0.26917669 4278190080
-0.066858724 2.6772172 0.2424023 4278190080
-0.16424268 2.6741896 0.2169776 4278190080
0.1290293 2.6907098 0.19706415 4278190080
0.031729531 2.691417 0.17052048 4278190080
-0.065534413 2.6633 0.1440963 4278190080
-0.16301394 2.6794038 0.11912622 4278190080
0.11541408 2.3876226 0.087192833 4278190080
0.032111418 2.6998248 0.072918802 4278190080
-0.064628929 2.6778147 0.046614747 4278190080
-0.16152234 2.6710374 0.021110447 4278190080
0.11235374 2.3092685 0.00028246408 4278190080
0.033991072 2.7106645 -0.025786765 4278190080
-0.064794898 2.6846914 -0.053204805 4294901760
-0.16149627 2.6830413 -0.077004731 4294901760
0.13372706 2.7308903 -0.10025719 4294901760
0.034583718 2.7089033 -0.1248685 4294901760
-0.062552318 2.6931012 -0.14999522 4294901760
-0.16134603 2.6993988 -0.17695931 4294901760
0.13566405 2.7342999 -0.20056105 4294901760
0.035731688 2.7134874 -0.22458686 4294901760
-0.062709503 2.6937928 -0.24896725 4278190080
-0.16010937 2.6842148 -0.2748917 4278190080
0.13658608 2.7240648 -0.30058733 4278190080
0.03674455 2.7113307 -0.3251124 4278190080
-0.06207072 2.6987436 -0.34959224 4278190080
-0.16015755 2.7080829 -0.37783375 4278190080
0.13817531 2.7328718 -0.40382686 4278190080
0.038762487 2.7134337 -0.42636305 4278190080
-0.061213739 2.7087853 -0.45248735 4278190080
-0.16066806 2.6991291 -0.47896171 4278190080
0.13993831 2.7327471 -0.50754356 4278190080
0.039255399 2.7213345 -0.53134614 4278190080
-0.060514841 2.7029216 -0.55511665 4278190080
-0.16079955 2.7029288 -0.58414108 4278190080
0.14124463 2.7274988 -0.61253744 4278190080
0.040439211 2.7210753 -0.63729078 4278190080
-0.059638735 2.7017193 -0.66081768 4278190080
-0.1617429 2.7100091 -0.69346541 4278190080
0.14558031 2.7544391 -0.72902751 4278190080
0.041467242 2.7199585 -0.74709249 4278190080
-0.059609383 2.6813004 -0.76524258 4278190080
-0.15969355 2.6546369 -0.78897268 4278190080
0.1431022 2.7232773 0.82812053 4278190080
0.040003054 2.7026401 0.78993297 4278190080
-0.060456414 2.6723044 0.75290382 4278190080
-0.15624624 2.6068668 0.70870912 4278190080
0.14153969 2.6881704 0.70625538 4278190080
0.041082822 2.6868594 0.67641741 4278190080
-0.057763923 2.6686389 0.64462882 4278190080
-0.15561041 2.6552277 0.61518413 4278190080
0.14181538 2.6862631 0.5995127 4278190080
0.042473059 2.6769228 0.56872725 4278190080
-0.055006944 2.6525371 0.53746653 4278190080
-0.15255967 2.650696 0.51200926 4278190080
0.14227873 2.6799357 0.49511948 4278190080
0.044239886 2.6792057 0.46722627 4278190080
-0.053580701 2.6714852 0.43995512 4278190080
-0.15043816 2.6599627 0.41277534 4278190080
0.13811366 2.5954936 0.38140136 4278190080
0.04505837 2.6667445 0.36511359 4278190080
-0.051984813 2.6590457 0.33843231 4278190080
-0.14882195 2.669399 0.31468427 4278190080
0.13950798 2.5986178 0.2857402 4278190080
0.046539124 2.6931617 0.26937568 4278190080
-0.050524145 2.6825562 0.24285305 4278190080
-0.1474461 2.6681805 0.21641256 4278190080
0.14375864 2.6570034 0.19465648 4278190080
0.048225269 2.6901739 0.17045726 4278190080
-0.049357414 2.672637 0.14458236 4278190080
-0.14657034 2.6803536 0.11912622 4278190080
0.13511884 2.47967 0.090582855 4278190080
0.048676625 2.6995769 0.072918802 4278190080
-0.048250925 2.68116 0.04666695 4278190080
-0.14545552 2.6779695 0.021157781 4278190080
0.12564544 2.2925596 0.00028050932 4278190080
0.05034266 2.6954081 -0.025644086 4278190080
-0.048356701 2.6870377 -0.053244423 4294901760
-0.14524612 2.6879742 -0.077119276 4294901760
0.15053597 2.7310164 -0.10029384 4294901760
0.051204585 2.7086401 -0.1248685 4294901760
-0.046077758 2.6964293 -0.15016201 4294901760
-0.1447798 2.7003379 -0.17695931 4294901760
0.15210563 2.7274413 -0.20012267 4294901760
0.052476846 2.718199 -0.22499926 4294901760
-0.04626485 2.699105 -0.24942727 4278190080
-0.14321122 2.6771996 -0.27407813 4278190080
0.15363325 2.7291298 -0.30124462 4278190080
0.053399816 2.7120469 -0.32523143 4278190080
-0.045476932 2.6970904 -0.34933537 4278190080
-0.14400969 2.717916 -0.37907526 4278190080
0.15471724 2.7280216 -0.40324289 4278190080
0.055431243 2.7141323 -0.42651826 4278190080
-0.04465672 2.7130547 -0.45314622 4278190080
-0.14420845 2.7020307 -0.47931054 4278190080
0.15681611 2.7338002 -0.50790828 4278190080
0.055912096 2.7190797 -0.53096288 4278190080
-0.043960717 2.7052007 -0.55551893 4278190080
-0.14436786 2.7067928 -0.58477372 4278190080
0.15780829 2.7236586 -0.61188102 4278190080
0.057073329 2.7178555 -0.63660675 4278190080
-0.043091133 2.7039771 -0.66129279 4278190080
-0.14531872 2.7148206 -0.69445544 4278190080
0.16168119 2.7399824 -0.7254501 4278190080
0.058197044 2.7215812 -0.74762219 4278190080
-0.043248955 2.6873846 -0.76688886 4278190080
-0.14391895 2.6651399 -0.79181683 4278190080
0.15992138 2.7242584 0.82870167 4278190080
0.056484912 2.6975453 0.78853035 4278190080
-0.044185244 2.6803243 0.75507277 4278190080
-0.14190638 2.6386151 0.71709001 4278190080
0.15808812 2.6882169 0.70650917 4278190080
0.057630632 2.6894653 0.67714977 4278190080
-0.041328087 2.6650553 0.64368981 4278190080
-0.13926429 2.6551597 0.61495882 4278190080
0.15835276 2.6863167 0.59973031 4278190080
0.058919065 2.6775897 0.56893504 4278190080
-0.038758863 2.6547847 0.53786361 4278190080
-0.13684687 2.6623688 0.51409209 4278190080
0.15877798 2.6799939 0.49530089 4278190080
0.060879126 2.6877477 0.46877223 4278190080
-0.037201501 2.6727502 0.44011757 4278190080
-0.13406436 2.6598487 0.41262224 4278190080
0.12817825 2.1590369 0.31737471 4278190080
0.061602883 2.6743417 0.3661986 4278190080
-0.035694845 2.6612983 0.33868474 4278190080
-0.13263682 2.6742294 0.31515184 4278190080
0.1577659 2.6364107 0.28999683 4278190080
0.063039884 2.6918306 0.2692762 4278190080
-0.034000117 2.6778362 0.2424023 4278190080
-0.13112055 2.6700306 0.21649326 4278190080
0.15525962 2.5764289 0.18881969 4278190080
0.06475497 2.690825 0.17052048 4278190080
-0.032969806 2.6738882 0.14463639 4278190080
-0.1302181 2.6831982 0.11921488 4278190080
0.15771171 2.6004896 0.09502998 4278190080
0.065384917 2.7052233 0.073080778 4278190080
-0.031881724 2.6884041 0.046788748 4278190080
-0.12868434 2.6718197 0.021102559 4278190080
0.13831043 2.2687881 0.00027769935 4278190080
0.066161014 2.6660585 -0.02536824 4278190080
-0.031927716 2.6922824 -0.05334346 4294901760
-0.12846343 2.6828241 -0.076947451 4294901760
0.16643463 2.7160766 -0.09978082 4294901760
0.067848526 2.7092733 -0.12491454 4294901760
-0.029542847 2.6976595 -0.15021761 4294901760
-0.12797157 2.6961918 -0.17663281 4294901760
0.16828325 2.7174978 -0.19946508 4294901760
0.069179758 2.7188222 -0.22508173 4294901760
-0.029614931 2.6913724 -0.24869122 4278190080
-0.12664041 2.6750467 -0.27377301 4278190080
0.16975644 2.7182152 -0.30014917 4278190080
0.070039615 2.711668 -0.32523143 4278190080
-0.028916406 2.6963272 -0.34920695 4278190080
-0.1273765 2.7197378 -0.37921321 4278190080
0.16934258 2.6934516 -0.39827901 4278190080
0.072214954 2.7186787 -0.42729428 4278190080
-0.028039435 2.7162366 -0.45364037 4278190080
-0.12739417 2.6979468 -0.47843844 4278190080
0.17283949 2.7210116 -0.50571984 4278190080
0.072437815 2.7127986 -0.52981317 4278190080
-0.027509684 2.7201123 -0.55853587 4278190080
-0.12789477 2.7105567 -0.5854063 4278190080
0.17295694 2.6982949 -0.60640991 4278190080
0.07377512 2.7184277 -0.6368348 4278190080
-0.026479993 2.7022479 -0.66081768 4278190080
-0.1287957 2.7185645 -0.69519788 4278190080
0.17805026 2.7321854 -0.7236613 4278190080
0.075187087 2.731776 -0.75053531 4278190080
-0.026729936 2.6847148 -0.76606572 4278190080
-0.12770072 2.6688457 -0.79267007 4278190080
0.1771915 2.7318194 0.83131677 4278190080
0.07311362 2.7000265 0.78937191 4278190080
-0.027658574 2.6728451 0.75290382 4278190080
-0.12621853 2.6500399 0.71997094 4278190080
0.17451702 2.6862311 0.70625538 4278190080
0.07421197 2.6919692 0.67788208 4278190080
-0.025084136 2.676923 0.64650685 4278190080
-0.12315015 2.659857 0.61586016 4278190080
0.1725498 2.6502309 0.59189922 4278190080
0.075429894 2.6801112 0.56955844 4278190080
-0.022443797 2.6520324 0.53726798 4278190080
-0.11997567 2.6513875 0.51181984 4278190080
0.17489822 2.6740627 0.49439377 4278190080
0.077454746 2.6902778 0.46928757 4278190080
-0.020801112 2.6729283 0.44011757 4278190080
-0.11787238 2.663583 0.41308156 4278190080
0.17111848 2.6113746 0.3840147 4278190080
0.078011177 2.6739135 0.3661986 4278190080
-0.01940806 2.667419 0.33944216 4278190080
-0.11613934 2.6730087 0.31491807 4278190080
0.17367777 2.6314256 0.28956029 4278190080
0.079437867 2.6874149 0.26887816 4278190080
-0.017620848 2.6859615 0.24312346 4278190080
-0.11477786 2.6717806 0.21657398 4278190080
0.11276565 1.6977124 0.12446924 4278190080
0.081204079 2.6883819 0.17039403 4278190080
-0.016525406 2.6680491 0.14431232 4278190080
-0.11396337 2.6889374 0.11943656 4278190080
0.16766971 2.5097327 0.091749318 4278190080
0.081619211 2.6927812 0.072756819 4278190080
-0.015356776 2.6835496 0.046701748 4278190080
-0.11249781 2.6775544 0.021142002 4278190080
0.14640224 2.181092 0.00026707028 4278190080
0.079950333 2.5826459 -0.024578754 4278190080
-0.015436188 2.6974266 -0.053442504 4294901760
-0.11237466 2.6925504 -0.077205189 4294901760
0.16339543 2.4228647 -0.089044213 4294901760
0.084439911 2.7078078 -0.1248685 4294901760
-0.012999378 2.6997869 -0.1503288 4294901760
-0.11121968 2.691941 -0.17630631 4294901760
0.16151324 2.3721361 -0.17418489 4294901760
0.085829377 2.7173505 -0.22499926 4294901760
-0.013114963 2.6944907 -0.24896725 4278190080
-0.11046991 2.6817374 -0.27438322 4278190080
0.1529558 2.2292304 -0.24625376 4278190080
0.086613327 2.7092023 -0.32499331 4278190080
-0.01240791 2.7043877 -0.35023442 4278190080
-0.11064585 2.7194786 -0.37907526 4278190080
0.14232928 2.0617096 -0.3049871 4278190080
0.08899197 2.7211466 -0.42775992 4278190080
-0.011376522 2.7173438 -0.45380509 4278190080
-0.11107992 2.7045808 -0.47948498 4278190080
0.18331228 2.6306424 -0.48912391 4278190080
0.08930739 2.7191696 -0.53115445 4278190080
-0.010787703 2.7123933 -0.55692679 4278190080
-0.11122063 2.710314 -0.58519548 4278190080
0.18219233 2.5930331 -0.58299387 4278190080
0.090388916 2.7159774 -0.63637877 4278190080
-0.0099130459 2.7062449 -0.66176778 4278190080
-0.1118331 2.712527 -0.69346541 4278190080
0.18738206 2.6268916 -0.69606411 4278190080
0.092044868 2.7341545 -0.75132984 4278190080
-0.010248987 2.6829052 -0.765517 4278190080
-0.11120275 2.6667054 -0.79181683 4278190080
0.19435704 2.7364075 0.8330602 4278190080
0.089838646 2.7043238 0.79077452 4278190080
-0.011274001 2.6768146 0.75398833 4278190080
-0.11055579 2.6652286 0.72389948 4278190080
0.190653 2.6802855 0.70498651 4278190080
0.090826198 2.6943707 0.67861438 4278190080
-0.0086017819 2.6595294 0.64228129 4278190080
-0.10686635 2.6615362 0.61608553 4278190080
0.18804477 2.6384127 0.58950633 4278190080
0.091873325 2.6795979 0.56955844 4278190080
-0.006173091 2.6531003 0.53746653 4278190080
-0.10374318 2.653055 0.51200926 4278190080
0.1897582 2.6513593 0.49040231 4278190080
0.093960516 2.6897519 0.46928757 4278190080
-0.0043999413 2.6730056 0.44011757 4278190080
-0.10152672 2.6642561 0.41308156 4278190080
0.16541757 2.3073058 0.33944285 4278190080
0.094241694 2.6684339 0.36552048 4278190080
-0.0030463734 2.6724479 0.34007335 4278190080
-0.099587791 2.6697011 0.31445044 4278190080
0.16928595 2.3457649 0.25823581 4278190080
0.095961533 2.6878712 0.26897767 4278190080
-0.0011389219 2.6840274 0.24294318 4278190080
-0.098381966 2.6724346 0.21657398 4278190080
0.11386614 1.5686699 0.11505744 4278190080
0.097045623 2.6698809 0.16925596 4278190080
-0.00015442682 2.6710958 0.14447436 4278190080
-0.096991912 2.6766074 0.11886021 4278190080
