# .PCD v0.7 - Point Cloud Data file format
VERSION 0.7
FIELDS x y z rgba
SIZE 4 4 4 4
TYPE F F F U
COUNT 1 1 1 1
WIDTH 1128
HEIGHT 1
VIEWPOINT 0 0 0 1 0 0 0
POINTS 1128
DATA ascii
10.09858 -7.0199051 1.3065468 4278190080
10.141131 -6.509397 1.1681867 4278190080
10.222363 -6.0420275 1.040969 4278190080
9.7955456 -5.313374 0.87351489 4278190080
10.096815 -7.0186777 0.85016084 4278190080
10.206563 -6.5513964 0.72649956 4278190080
10.257884 -6.0630221 0.6036244 4278190080
9.8031158 -5.3174801 0.46216068 4278190080
10.110742 -7.0283585 0.39686671 4278190080
10.248234 -6.5781441 0.28018022 4278190080
10.291577 -6.0829377 0.16505396 4278190080
9.7463789 -5.2867045 0.051089656 4278190080
10.119989 -7.0347872 -0.056789327 4278190080
10.144785 -6.5117426 -0.16643448 4278190080
9.7373028 -5.7553282 -0.26023796 4278190080
9.585041 -5.1991906 -0.35144609 4278190080
9.9038572 -6.8845458 -0.49983904 4278190080
10.140323 -6.5088782 -0.61040384 4294901760
9.58496 -5.6652842 -0.6669445 4294901760
9.5136881 -5.1604867 -0.7482878 4294901760
9.2288084 -6.4152937 -0.88101691 4278190080
9.2384729 -5.9299979 -0.96237236 4278190080
9.1383381 -5.4013038 -1.0290502 4278190080
8.8309641 -4.7901587 -1.0672739 4278190080
7.7056789 -5.3565087 -1.084501 4278190080
7.2642255 -4.6627669 -1.0780718 4278190080
6.8794794 -4.0661836 -1.0727996 4278190080
6.5256133 -3.5396726 -1.0663483 4278190080
5.7562451 -4.0013838 -1.0728642 4278190080
5.5687337 -3.5744631 -1.0751929 4278190080
5.333169 -3.1522214 -1.0651798 4278190080
5.201467 -2.8214192 -1.073561 4278190080
4.6770654 -3.251205 -1.0877179 4278190080
4.5134544 -2.8970995 -1.0753827 4278190080
4.388463 -2.5938439 -1.0710038 4278190080
0 -0 -0 4278190080
3.9007375 -2.7115502 -1.0897794 4278190080
3.8100305 -2.4455853 -1.0825007 4278190080
3.7458844 -2.2140415 -1.0828793 4278190080
3.6457076 -1.9775323 -1.0727729 4278190080
2.8889613 -2.0082262 -0.94465876 4294901760
2.909678 -1.8676664 -0.96255875 4294901760
2.9033749 -1.7160681 -0.97243273 4278190080
2.9110875 -1.5790541 -0.98797488 4278190080
5.3816266 -3.7901602 1.9636573 4278190080
5.8118453 -3.7810652 1.9991666 4278190080
5.1041031 -3.0592437 1.6566523 4278190080
5.3896785 -2.9664547 1.6517915 4278190080
5.4283562 -3.8230708 1.7173378 4278190080
5.8655095 -3.8159783 1.7414458 4278190080
6.4092903 -3.8415332 1.7866495 4278190080
6.9950695 -3.8500547 1.8316523 4278190080
6.4170232 -4.5193672 1.7246542 4278190080
6.9168787 -4.4999771 1.7336733 4278190080
7.4579201 -4.4700499 1.7434175 4278190080
8.0097246 -4.4085164 1.7459008 4278190080
8.8087654 -6.2038183 1.9546877 4278190080
8.0924721 -5.2647934 1.6599588 4278190080
8.7837687 -5.2647233 1.6639509 4278190080
9.7752628 -5.3802605 1.7076269 4278190080
9.8044214 -6.9050364 1.7225081 4278190080
10.154491 -6.6063004 1.6262964 4278190080
10.163214 -6.0915203 1.4798547 4278190080
9.7793112 -5.3824887 1.2899902 4278190080
10.111414 -7.1212444 1.3138359 4278190080
10.13771 -6.5953822 1.1724322 4278190080
10.249182 -6.1430469 1.0475187 4278190080
9.7811003 -5.3834734 0.87515599 4278190080
10.084554 -7.1023273 0.85278177 4278190080
10.19964 -6.6356735 0.72889131 4278190080
10.277883 -6.1602497 0.60701412 4278190080
9.7860584 -5.3862023 0.46290594 4278190080
10.079683 -7.0988975 0.39734989 4278190080
10.211868 -6.6436281 0.28029522 4278190080
10.215466 -6.1228385 0.16443273 4278190080
9.7268982 -5.3536406 0.051158775 4278190080
10.074999 -7.0955987 -0.056780111 4278190080
10.13565 -6.5940423 -0.16694528 4278190080
10.057671 -6.0282612 -0.26978356 4278190080
9.5608397 -5.2622428 -0.35173601 4278190080
9.9112577 -6.980279 -0.50236475 4278190080
10.152098 -6.604743 -0.61354065 4294901760
10.1485 -6.0827017 -0.70874065 4294901760
9.5334101 -5.2471457 -0.75235718 4294901760
9.2104626 -6.4867249 -0.88304871 4278190080
9.2244587 -6.0012403 -0.96473026 4278190080
9.1101456 -5.4603438 -1.0296291 4278190080
8.8336391 -4.8619952 -1.0711825 4278190080
7.76688 -5.4700413 -1.0978177 4278190080
7.2346468 -4.7067099 -1.0779479 4278190080
6.849299 -4.1052608 -1.0720012 4278190080
6.5063725 -3.5810781 -1.0667748 4278190080
5.7639122 -4.0593953 -1.0789152 4278190080
5.5425596 -3.6058736 -1.074391 4278190080
5.3289428 -3.194006 -1.0682299 4278190080
5.1323376 -2.8248153 -1.0628504 4278190080
4.7614279 -3.3533683 -1.112102 4278190080
4.4824433 -2.9161842 -1.0722373 4278190080
4.244875 -2.5442488 -1.0397516 4278190080
4.2782793 -2.3547456 -1.0730801 4278190080
3.8672917 -2.7236478 -1.0850841 4278190080
3.7884309 -2.4646742 -1.0806404 4278190080
3.7055938 -2.22102 -1.0751513 4278190080
3.6402903 -2.0035992 -1.0747761 4278190080
2.8686883 -2.0203536 -0.94206566 4294901760
2.8884733 -1.8791803 -0.95934033 4294901760
2.8878458 -1.7308867 -0.97077042 4278190080
2.9147758 -1.6042795 -0.99254882 4278190080
5.3099051 -3.7886021 1.9459331 4278190080
5.798964 -3.8235307 2.0027683 4278190080
5.0580678 -3.0739934 1.6478018 4278190080
5.4067907 -3.0192459 1.6626824 4278190080
5.4118886 -3.8613672 1.7195916 4278190080
5.8055282 -3.8278587 1.7305783 4278190080
6.2858624 -3.8201737 1.7587439 4278190080
6.9117455 -3.8596387 1.8160011 4278190080
7.8918524 -5.6308141 2.1302786 4278190080
8.5272684 -5.6224303 2.1459141 4278190080
7.3993506 -4.4968858 1.7361435 4278190080
7.9816656 -4.4571009 1.7457131 4278190080
8.696044 -6.2046027 1.9380862 4278190080
8.0007753 -5.2752891 1.6477584 4278190080
8.7428646 -5.3133941 1.6623471 4278190080
9.7463808 -5.4425488 1.7083833 4278190080
9.7940989 -6.9880619 1.7281952 4278190080
10.131141 -6.6799397 1.6290905 4278190080
10.1655 -6.1779876 1.4856794 4278190080
9.7643147 -5.4525628 1.292401 4278190080
10.118526 -7.2195396 1.3204912 4278190080
10.145247 -6.6892395 1.1780286 4278190080
10.226619 -6.2151318 1.0490906 4278190080
9.7478838 -5.443388 0.87515599 4278190080
10.080578 -7.1924639 0.85616153 4278190080
10.1779 -6.7107701 0.73026657 4278190080
10.233063 -6.219048 0.6066094 4278190080
9.7737617 -5.4578385 0.46389967 4278190080
10.054648 -7.1739631 0.39809081 4278190080
10.188438 -6.7177186 0.28077823 4278190080
10.269989 -6.2414894 0.1659237 4278190080
9.6580687 -5.3932333 0.050969858 4278190080
10.04511 -7.1671572 -0.056858439 4278190080
10.092494 -6.654458 -0.16690385 4278190080
10.047832 -6.1064754 -0.27051961 4278190080
9.5248814 -5.3188591 -0.35160714 4278190080
9.8820677 -7.0508275 -0.50306863 4278190080
10.143064 -6.6878014 -0.61546314 4294901760
10.087101 -6.1303415 -0.70706642 4294901760
9.4879694 -5.2982469 -0.75132257 4294901760
9.2240496 -6.5813336 -0.8882063 4278190080
9.2107487 -6.0730815 -0.96717548 4278190080
9.1428156 -5.5564604 -1.0371553 4278190080
8.8166637 -4.923378 -1.072767 4278190080
7.6531134 -5.460475 -1.0864526 4278190080
7.2246852 -4.763576 -1.0807983 4278190080
6.8290629 -4.1502991 -1.0727996 4278190080
6.4868698 -3.622381 -1.0672015 4278190080
5.7388954 -4.0946856 -1.0789152 4278190080
5.5409312 -3.6533976 -1.0784006 4278190080
5.3100867 -3.2271554 -1.0683994 4278190080
5.126935 -2.8629696 -1.0653495 4278190080
4.5400658 -3.2393241 -1.065022 4278190080
4.4767442 -2.9517286 -1.0751861 4278190080
4.3270316 -2.6297128 -1.0638076 4278190080
4.3055353 -2.4042857 -1.0835962 4278190080
3.779892 -2.6969423 -1.0651846 4278190080
3.7683649 -2.4846609 -1.0792451 4278190080
3.685262 -2.2396834 -1.0732194 4278190080
3.5949621 -2.0074892 -1.06501 4278190080
2.8633137 -2.0429661 -0.94439948 4294901760
2.8953867 -1.9090651 -0.96550888 4294901760
2.8919508 -1.757556 -0.97575724 4278190080
2.9048774 -1.6221341 -0.99254882 4278190080
5.2391839 -3.7868695 1.9284949 4278190080
5.7138772 -3.8179357 1.9814355 4278190080
5.0858607 -3.1337771 1.663089 4278190080
5.3453069 -3.0280867 1.6494578 4278190080
5.3880939 -3.8945012 1.7195916 4278190080
5.7698288 -3.8553219 1.7269559 4278190080
6.2101388 -3.8265285 1.7440935 4278190080
6.7895579 -3.846247 1.7900646 4278190080
7.8603196 -5.6814203 2.1311369 4278190080
8.5031872 -5.6817155 2.1485872 4278190080
7.3741236 -4.543746 1.7367333 4278190080
7.9644232 -4.5118012 1.7479639 4278190080
8.5669022 -6.1921363 1.9177362 4278190080
7.9772701 -5.3303046 1.6496222 4278190080
8.7731228 -5.4057736 1.6743757 4278190080
9.7515059 -5.5241742 1.7151909 4278190080
9.811203 -7.0915141 1.7388587 4278190080
10.143528 -6.7777691 1.6377389 4278190080
10.162883 -6.2621078 1.4908844 4278190080
9.7747555 -5.5373449 1.2982558 4278190080
10.116751 -7.3123631 1.3260901 4278190080
10.123873 -6.7646356 1.1803442 4278190080
10.11705 -6.2338672 1.041755 4278190080
9.7698154 -5.5345464 0.88015729 4278190080
10.114682 -7.3108683 0.86285186 4278190080
10.22202 -6.8302164 0.7364254 4278190080
10.193861 -6.2811961 0.6065588 4278190080
9.764431 -5.5314956 0.46505898 4278190080
10.093874 -7.2958279 0.40140876 4278190080
10.16199 -6.7901049 0.28119224 4278190080
10.297897 -6.3453007 0.16700049 4278190080
9.6204443 -5.4499278 0.050946821 4278190080
10.030931 -7.2503328 -0.057028923 4278190080
10.104682 -6.7518125 -0.16778739 4278190080
9.9088888 -6.1056032 -0.26778242 4278190080
9.4955444 -5.3791728 -0.35173601 4278190080
9.8612919 -7.127718 -0.50422794 4278190080
10.124259 -6.7648931 -0.61682916 4294901760
10.116433 -6.2334871 -0.71179014 4294901760
9.4700375 -5.3647237 -0.75249511 4294901760
9.2166214 -6.6617517 -0.89141035 4278190080
9.1965036 -6.14498 -0.9696207 4278190080
9.1399021 -5.6317739 -1.0407254 4278190080
8.7871532 -4.9778733 -1.0728726 4278190080
7.5961165 -5.4904547 -1.0831234 4278190080
7.2142963 -4.8204956 -1.0836487 4278190080
6.8135939 -4.1983624 -1.0743961 4278190080
6.4524641 -3.6552849 -1.0652109 4278190080
5.7144642 -4.1304007 -1.0790665 4278190080
5.5274377 -3.6933594 -1.0801647 4278190080
5.2910242 -3.2601936 -1.0685688 4278190080
5.1426601 -2.9132884 -1.0723114 4278190080
4.4850769 -3.2418027 -1.0567689 4278190080
4.4585481 -2.979142 -1.0751861 4278190080
4.2683229 -2.6300313 -1.0533217 4278190080
4.2762547 -2.4224746 -1.0799477 4278190080
3.786181 -2.7366424 -1.0716686 4278190080
3.7627525 -2.5142205 -1.0820357 4278190080
3.6433609 -2.2449458 -1.0650085 4278190080
3.5387735 -2.0046957 -1.0519884 4278190080
2.8616824 -2.0684173 -0.94802976 4294901760
2.8828175 -1.9262598 -0.96524072 4294901760
2.8827484 -1.7762758 -0.97631139 4278190080
2.8965371 -1.6408722 -0.99312061 4278190080
5.1710052 -3.7861111 1.9119143 4278190080
5.6322622 -3.813597 1.9612112 4278190080
6.1058264 -3.8141398 2.0042355 4278190080
5.3182526 -3.056016 1.6468647 4278190080
5.3648777 -3.9280608 1.7198421 4278190080
5.7340112 -3.8824911 1.7233334 4278190080
6.1403499 -3.8357058 1.731071 4278190080
6.6821656 -3.8397586 1.7679291 4278190080
7.8237352 -5.7283893 2.1307077 4278190080
8.4689751 -5.7343316 2.1487927 4278190080
9.1431313 -5.7114596 2.1615784 4278190080
7.9101877 -4.5454144 1.7421492 4278190080
8.456502 -6.191689 1.9014916 4278190080
7.9762402 -5.400701 1.6562308 4278190080
8.6970949 -5.4328332 1.6661963 4278190080
9.8262739 -5.646451 1.7344031 4278190080
9.7866735 -7.1656151 1.7422711 4278190080
10.116522 -6.8498831 1.6401339 4278190080
10.144465 -6.3369656 1.4938588 4278190080
10.083398 -5.7942014 1.3439455 4278190080
10.094158 -7.3907495 1.3290479 4278190080
10.120087 -6.8522973 1.1847827 4278190080
10.136062 -6.3317156 1.0476934 4278190080
10.14626 -5.8303237 0.91727668 4278190080
10.107465 -7.4004927 0.86609358 4278190080
10.098915 -6.8379617 0.73056555 4278190080
10.267784 -6.4139991 0.61328763 4278190080
10.123608 -5.817307 0.4838568 4278190080
10.091659 -7.3889198 0.40311608 4278190080
10.128414 -6.857935 0.28142229 4278190080
10.235872 -6.3940649 0.16662775 4278190080
9.6544514 -5.5477166 0.051306218 4278190080
10.055642 -7.3625493 -0.057425179 4278190080
10.088731 -6.8310657 -0.16821535 4278190080
9.8737822 -6.1678772 -0.26785144 4278190080
9.5186872 -5.4697032 -0.35382983 4278190080
9.8504248 -7.2122922 -0.5059256 4278190080
10.114812 -6.8487253 -0.61880231 4294901760
10.121172 -6.3224149 -0.7148397 4294901760
9.4274263 -5.4172621 -0.7517364 4294901760
9.2326832 -6.759994 -0.89695871 4278190080
9.1619253 -6.203527 -0.96996999 4278190080
9.1338768 -5.7056785 -1.044006 4278190080
8.7598934 -5.0336785 -1.0732952 4278190080
7.557476 -5.5334392 -1.0824347 4278190080
7.1599331 -4.847981 -1.0799308 4278190080
6.7977924 -4.2463918 -1.0759928 4278190080
6.4393544 -3.7002325 -1.0667748 4278190080
5.712142 -4.1823211 -1.0834535 4278190080
5.4597192 -3.6967683 -1.0713438 4278190080
5.3043547 -3.3134828 -1.0753469 4278190080
5.1263938 -2.9457686 -1.0726683 4278190080
4.5871501 -3.3586237 -1.0856546 4278190080
4.4442444 -3.0091918 -1.0761691 4278190080
4.2595754 -2.6608381 -1.0551722 4278190080
4.236752 -2.4345558 -1.0737239 4278190080
3.7410069 -2.7390938 -1.0636194 4278190080
3.73598 -2.5296268 -1.0787801 4278190080
3.655031 -2.2831962 -1.0724949 4278190080
3.5515893 -2.0408421 -1.0595009 4278190080
2.873873 -2.1041949 -0.95632762 4294901760
2.8613713 -1.9374306 -0.9620223 4294901760
2.8897235 -1.8051299 -0.98240638 4278190080
2.9022009 -1.6676854 -0.9985522 4278190080
5.1014953 -3.7835181 1.894762 4278190080
5.5279408 -3.7926376 1.9329524 4278190080
6.0611467 -3.8381324 1.9972625 4278190080
5.2860503 -3.0808096 1.6427157 4278190080
5.3414521 -3.9614818 1.7200925 4278190080
5.7116814 -3.9186993 1.7238164 4278190080
6.105195 -3.8660254 1.7278154 4278190080
6.5869012 -3.8389699 1.7489239 4278190080
7.7954993 -5.7815232 2.1326392 4278190080
8.4287891 -5.7828665 2.1475592 4278190080
9.0971451 -5.7606339 2.1590226 4278190080
9.3799953 -5.4668374 2.0732102 4278190080
8.3511753 -6.1936398 1.8863182 4278190080
7.8624983 -5.3943429 1.639455 4278190080
8.6135597 -5.454411 1.6565734 4278190080
9.8554964 -5.7439685 1.7457491 4278190080
9.7822742 -7.255013 1.74938 4278190080
10.096367 -6.9269671 1.6437263 4278190080
10.134734 -6.4176722 1.4981964 4278190080
10.191843 -5.9399981 1.3632317 4278190080
10.089354 -7.482758 1.3344356 4278190080
10.090984 -6.9232736 1.1863266 4278190080
10.125635 -6.4119101 1.0506625 4278190080
10.156807 -5.9195781 0.92149651 4278190080
10.057058 -7.458806 0.86567974 4278190080
10.109447 -6.9359412 0.7343924 4278190080
10.260299 -6.4971843 0.61521018 4278190080
10.130021 -5.9039669 0.48588562 4278190080
10.048539 -7.4524875 0.4032127 4278190080
10.128186 -6.9487977 0.28259534 4278190080
10.29444 -6.5188041 0.16822915 4278190080
10.334727 -6.0232739 0.055116747 4278190080
10.029554 -7.4384074 -0.057535764 4278190080
10.076308 -6.9132051 -0.16871233 4278190080
10.022415 -6.3465476 -0.27293473 4278190080
9.5816622 -5.584373 -0.35743773 4278190080
9.879014 -7.3267593 -0.50969338 4278190080
10.127775 -6.9485154 -0.62219197 4294901760
10.131102 -6.4153719 -0.71830773 4294901760
9.2905798 -5.4147248 -0.74345964 4294901760
9.2759104 -6.8794684 -0.90524215 4278190080
9.1581888 -6.2832966 -0.97363782 4278190080
9.1449451 -5.7909031 -1.0493128 4278190080
8.7339964 -5.0903378 -1.0739291 4278190080
7.5313597 -5.5856242 -1.0835825 4278190080
7.1783271 -4.924943 -1.0872427 4278190080
6.7833319 -4.2954454 -1.0778556 4278190080
6.4293566 -3.7471502 -1.0689075 4278190080
5.7086034 -4.2337794 -1.0876894 4278190080
5.4760008 -3.7570026 -1.0790421 4278190080
5.2722669 -3.3385859 -1.0729746 4278190080
5.2263856 -3.046036 -1.0974813 4278190080
4.5609331 -3.3826108 -1.0843416 4278190080
4.4087176 -3.0247555 -1.0720406 4278190080
4.282855 -2.7120552 -1.0650413 4278190080
4.1955748 -2.44526 -1.0670708 4278190080
3.7883251 -2.809607 -1.0819538 4278190080
3.6867046 -2.5293932 -1.0690131 4278190080
3.6409526 -2.3055801 -1.0724949 4278190080
3.6192985 -2.1093953 -1.0835406 4278190080
2.8764226 -2.1332955 -0.96151376 4294901760
2.8716722 -1.9702115 -0.96953183 4294901760
2.9191823 -1.8485295 -0.99625868 4278190080
2.905988 -1.6936646 -1.003412 4278190080
5.045239 -3.7900007 1.8824695 4278190080
5.4698515 -3.8023536 1.9207624 4278190080
5.9742455 -3.8346612 1.976343 4278190080
6.2481232 -3.6930692 1.948699 4278190080
5.2992406 -3.9808075 1.7143329 4278190080
5.695497 -3.9592106 1.7262313 4278190080
6.0838141 -3.9049897 1.728513 4278190080
6.511199 -3.8485651 1.7350613 4278190080
7.7747154 -5.8403926 2.1367171 4278190080
8.3843088 -5.8283315 2.1452975 4278190080
9.0401735 -5.8025746 2.1539109 4278190080
9.7022667 -5.7347054 2.1521771 4278190080
8.2367048 -6.1874409 1.8690027 4278190080
7.8235869 -5.4385471 1.6382688 4278190080
8.7319412 -5.6047306 1.685923 4278190080
9.8472967 -5.8204279 1.75059 4278190080
9.7803106 -7.347003 1.7570578 4278190080
10.050419 -6.9865236 1.6431941 4278190080
10.133578 -6.5043926 1.5038971 4278190080
10.174873 -6.0140481 1.365872 4278190080
10.09334 -7.5821509 1.3410908 4278190080
10.116964 -7.0327826 1.1944315 4278190080
10.101192 -6.4836054 1.0522345 4278190080
10.303955 -6.0903444 0.93821973 4278190080
10.050187 -7.5497346 0.86905944 4278190080
10.119155 -7.034306 0.7382192 4278190080
10.25722 -6.5837545 0.61743629 4278190080
10.144352 -5.9960079 0.48832852 4278190080
10.093722 -7.5824389 0.406885 4278190080
10.113269 -7.0302138 0.28337741 4278190080
10.275285 -6.5953493 0.16857427 4278190080
10.290688 -6.0825024 0.055079885 4278190080
10.034894 -7.5382466 -0.057830654 4278190080
10.10595 -7.0251265 -0.16992718 4278190080
10.003477 -6.4208851 -0.27348679 4278190080
9.5713081 -5.6572995 -0.3583397 4278190080
9.8770103 -7.4196434 -0.51192927 4278190080
10.10955 -7.0276294 -0.6237098 4294901760
10.13607 -6.5059924 -0.72147685 4294901760
9.2176752 -5.4482784 -0.74028689 4294901760
9.2733793 -6.9661942 -0.90914947 4278190080
9.1881723 -6.387135 -0.9809736 4278190080
9.1745758 -5.8888421 -1.0568389 4278190080
8.7043104 -5.1448445 -1.0741403 4278190080
7.5112419 -5.6424704 -1.085649 4278190080
7.1528611 -4.9722939 -1.0879862 4278190080
6.7751966 -4.3487639 -1.0807827 4278190080
6.4019833 -3.7840114 -1.0681967 4278190080
5.6951632 -4.2782259 -1.0901098 4278190080
5.4001646 -3.7539113 -1.0686173 4278190080
5.2342653 -3.3596935 -1.0694162 4278190080
5.1127286 -3.0219734 -1.0774881 4278190080
4.5220289 -3.3969636 -1.0800276 4278190080
4.3796091 -3.0444746 -1.0694848 4278190080
4.1878934 -2.6880636 -1.0455086 4278190080
4.1392927 -2.4466059 -1.0565547 4278190080
3.7141259 -2.7900639 -1.0656317 4278190080
3.6535463 -2.5397537 -1.0638971 4278190080
3.6634867 -2.3514652 -1.0833623 4278190080
3.5837846 -2.1182625 -1.0767794 4278190080
2.8694563 -2.1555452 -0.96358824 4294901760
2.8682303 -1.9938432 -0.97248203 4278190080
2.8786747 -1.8477216 -0.98628503 4278190080
2.9153397 -1.7231658 -1.0102729 4278190080
4.9707928 -3.7820098 1.8633159 4278190080
5.4079242 -3.8087339 1.9071871 4278190080
5.8738894 -3.8213387 1.9508643 4278190080
6.4374127 -3.8584464 2.0150819 4278190080
5.2839608 -4.0202827 1.7173378 4278190080
5.6607823 -3.986819 1.7230918 4278190080
6.0360966 -3.9268649 1.7217692 4278190080
6.4515138 -3.8668981 1.7254469 4278190080
7.741065 -5.8897619 2.1373608 4278190080
8.3211842 -5.860507 2.1383069 4278190080
9.0167284 -5.8659549 2.1568601 4278190080
9.7317696 -5.8330126 2.16662 4278190080
8.1335907 -6.1884136 1.8541863 4278190080
8.8214397 -6.212831 1.8551685 4278190080
9.4941511 -6.1765494 1.8403698 4278190080
9.8190279 -5.8853135 1.7519515 4278190080
9.7641926 -7.4290514 1.7623184 4278190080
9.9984474 -7.0417829 1.6417305 4278190080
10.133402 -6.5924225 1.5098459 4278190080
10.16249 -6.091177 1.3692012 4278190080
10.068785 -7.660799 1.3440487 4278190080
10.10129 -7.114213 1.1977122 4278190080
10.123846 -6.586206 1.0587842 4278190080
10.274088 -6.1580663 0.938923 4278190080
10.067983 -7.6601887 0.87464625 4278190080
10.083148 -7.1014366 0.73875737 4278190080
10.225002 -6.6520143 0.61794221 4278190080
10.139079 -6.0771451 0.48986048 4278190080
10.043031 -7.6412039 0.40672392 4278190080
10.069124 -7.0915594 0.28335437 4278190080
10.242167 -6.6631808 0.16869852 4278190080
10.230015 -6.13165 0.054955482 4278190080
10.010735 -7.616632 -0.057959668 4278190080
10.085545 -7.1031241 -0.17031373 4278190080
9.9404268 -6.4668798 -0.27284274 4278190080
9.9221926 -5.9471483 -0.37283564 4278190080
9.8726463 -7.5115676 -0.51408231 4278190080
10.096452 -7.110806 -0.62558174 4294901760
10.117714 -6.5822167 -0.72303152 4294901760
9.1695251 -5.4960155 -0.73911434 4294901760
9.2637835 -7.048317 -0.9124316 4278190080
9.1659117 -6.4554381 -0.98280752 4278190080
9.2992935 -6.0497818 -1.0754613 4278190080
8.6768436 -5.2007127 -1.0746685 4278190080
7.4978242 -5.7046928 -1.0887485 4278190080
7.0662389 -4.9766645 -1.079435 4278190080
6.7641706 -4.4005232 -1.0833106 4278190080
6.3896818 -3.8298373 -1.070045 4278190080
5.6113777 -4.2693968 -1.0790665 4278190080
5.3746085 -3.7852702 -1.0681362 4278190080
5.1895947 -3.3761616 -1.0645019 4278190080
5.0628638 -3.0345712 -1.0708832 4278190080
4.4799943 -3.4085877 -1.0749632 4278190080
4.3552351 -3.067338 -1.0681087 4278190080
4.1516333 -2.7009015 -1.0405741 4278190080
4.1384439 -2.480494 -1.0602031 4278190080
3.6961608 -2.8122108 -1.0654081 4278190080
3.6331229 -2.5587635 -1.0625018 4278190080
3.6327209 -2.3633161 -1.0785323 4278190080
3.5748718 -2.1427009 -1.0780314 4278190080
2.8315804 -2.154398 -0.95529044 4294901760
2.8653939 -2.0180614 -0.97570038 4278190080
2.8721156 -1.8684939 -0.98794734 4278190080
2.8973143 -1.7365876 -1.0077001 4278190080
4.8943601 -3.7714953 1.843305 4278190080
5.3203144 -3.796082 1.8844694 4278190080
5.8101177 -3.8307941 1.9374546 4278190080
6.3459396 -3.8567421 1.9938185 4278190080
5.2568932 -4.0508561 1.7165867 4278190080
5.6212044 -4.0107689 1.7185034 4278190080
6.0248804 -3.9723938 1.72549 4278190080
6.4476552 -3.9185598 1.730813 4278190080
7.6831183 -5.9204569 2.1313517 4278190080
8.2778988 -5.9063392 2.1364563 4278190080
8.9682865 -5.9130745 2.1539109 4278190080
9.6899195 -5.8890448 2.165307 4278190080
8.0151901 -6.1763444 1.8357998 4278190080
8.6981134 -6.2061648 1.8372065 4278190080
9.4445372 -6.2270813 1.8381244 4278190080
9.8460855 -5.9839549 1.7632972 4278190080
9.7756615 -7.5329289 1.7726974 4278190080
9.8945427 -7.0598254 1.6317517 4278190080
10.143295 -6.6877947 1.5174056 4278190080
10.167369 -6.179214 1.374941 4278190080
10.084603 -7.7709932 1.3524998 4278190080
10.118215 -7.2194176 1.2049489 4278190080
10.138134 -6.6843915 1.064548 4278190080
10.229294 -6.2168493 0.93829793 4278190080
10.022371 -7.7230382 0.87478417 4278190080
10.104391 -7.2095542 0.74354088 4278190080
10.15898 -6.6981359 0.61642444 4278190080
10.138313 -6.1615562 0.4916409 4278190080
10.094918 -7.7789412 0.41075057 4278190080
10.058788 -7.1770163 0.28429747 4278190080
10.201089 -6.7258997 0.16869852 4278190080
10.261416 -6.236372 0.055328697 4278190080
10.039853 -7.7365093 -0.058402002 4278190080
10.077584 -7.1904278 -0.17092115 4278190080
9.9756775 -6.5772791 -0.27491286 4278190080
9.6643 -5.8734741 -0.36449242 4278190080
9.830327 -7.5750527 -0.51428932 4278190080
10.106288 -7.2109075 -0.62892085 4294901760
10.090469 -6.6529651 -0.72398818 4294901760
9.1211367 -5.5433669 -0.7379418 4294901760
9.2764292 -7.1482301 -0.91797996 4278190080
9.2161417 -6.5757823 -0.99250108 4278190080
9.2204485 -6.0793328 -1.0706367 4278190080
8.6626139 -5.2647004 -1.0768869 4278190080
7.4563851 -5.7457409 -1.0878302 4278190080
7.0824199 -5.0533566 -1.0866231 4278190080
6.737042 -4.4419446 -1.0833106 4278190080
6.3829794 -3.8792531 -1.0728886 4278190080
5.5842929 -4.303144 -1.0789152 4278190080
5.4075265 -3.8583081 -1.0793629 4278190080
5.1893511 -3.4215031 -1.0687382 4278190080
5.0702143 -3.0814207 -1.0764171 4278190080
4.442656 -3.4234216 -1.0710241 4278190080
4.3499007 -3.1036849 -1.0714508 4278190080
4.233026 -2.7909677 -1.0652468 4278190080
0 -0 -0 4278190080
3.7158942 -2.8633935 -1.0761404 4278190080
3.7123601 -2.6487951 -1.0904073 4278190080
3.5646813 -2.350307 -1.0625935 4278190080
3.5426283 -2.1530309 -1.0722719 4278190080
2.8175428 -2.1711419 -0.95503104 4294901760
2.8568783 -2.0384028 -0.97704136 4278190080
2.8790469 -1.8982465 -0.99431938 4278190080
2.8997066 -1.7622955 -1.012274 4278190080
4.8310876 -3.7702093 1.8281538 4278190080
5.2455258 -3.7915058 1.8661844 4278190080
5.7144122 -3.818203 1.9133167 4278190080
6.2325325 -3.8403833 1.9655541 4278190080
5.2273593 -4.0794621 1.7150842 4278190080
5.5957026 -4.0446162 1.7182618 4278190080
6.0068622 -4.0136094 1.7273502 4278190080
6.4367671 -3.9662292 1.7343905 4278190080
7.6404862 -5.9626808 2.1296346 4278190080
8.250227 -5.963326 2.1387179 4278190080
8.9481411 -5.9788861 2.1578431 4278190080
9.6569481 -5.9504514 2.1660573 4278190080
7.9189658 -6.1800075 1.8224115 4278190080
8.5807943 -6.2022634 1.8204306 4278190080
9.3109484 -6.2213035 1.8195202 4278190080
9.8495789 -6.0691471 1.7705586 4278190080
9.7612505 -7.6177378 1.7785269 4278190080
9.8687086 -7.1331773 1.6346787 4278190080
10.153223 -6.7840862 1.5250893 4278190080
10.158017 -6.259202 1.3788443 4278190080
10.08612 -7.8712673 1.3591551 4278190080
10.102767 -7.3023562 1.2084224 4278190080
10.095272 -6.7453656 1.0643734 4278190080
10.199443 -6.2847276 0.93907928 4278190080
10.03614 -7.832263 0.88016409 4278190080
10.099605 -7.3000703 0.74647081 4278190080
10.194087 -6.8113909 0.62107897 4278190080
10.164113 -6.262958 0.49474624 4278190080
10.026511 -7.8247485 0.40991303 4278190080
10.089104 -7.2924805 0.28641358 4278190080
10.158796 -6.7878108 0.16868472 4278190080
10.238283 -6.30866 0.055411637 4278190080
10.040283 -7.8354959 -0.058683071 4278190080
10.081087 -7.2866864 -0.17173564 4278190080
9.9334698 -6.6372542 -0.27486688 4278190080
9.7250834 -5.992435 -0.36816475 4278190080
9.7844505 -7.6358428 -0.51433074 4278190080
10.099085 -7.299695 -0.63124812 4294901760
10.099257 -6.7480278 -0.72757584 4294901760
9.0691156 -5.5882387 -0.73649335 4294901760
9.2331791 -7.2056279 -0.91805804 4278190080
9.1974182 -6.6479635 -0.99485892 4278190080
9.1945591 -6.1435356 -1.0719876 4278190080
8.7012615 -5.3615732 -1.0857607 4278190080
7.4366517 -5.803607 -1.0901262 4278190080
7.0585175 -5.1019497 -1.0877384 4278190080
6.7005954 -4.4771419 -1.0818471 4278190080
6.3961353 -3.9411926 -1.0791445 4278190080
5.6170087 -4.3835468 -1.0904124 4278190080
5.3925495 -3.8977757 -1.081127 4278190080
5.1871071 -3.4658732 -1.0726358 4278190080
0 -0 -0 4278190080
4.4037566 -3.4367177 -1.06671 4278190080
4.2783289 -3.0924084 -1.0584755 4278190080
4.2280269 -2.8250439 -1.0683309 4278190080
4.0927258 -2.5218699 -1.0563401 4278190080
3.6106586 -2.8177793 -1.0506512 4278190080
3.6085434 -2.6082823 -1.0645946 4278190080
3.5348628 -2.3618917 -1.058005 4278190080
3.54089 -2.1818378 -1.0757776 4278190080
2.8589873 -2.2311707 -0.97370124 4278190080
2.8927245 -2.090883 -0.99366957 4278190080
2.8897152 -1.9308232 -1.0020766 4278190080
2.8855755 -1.7780437 -1.0111306 4278190080
4.7860603 -3.7825499 1.8198634 4278190080
5.1880512 -3.7986441 1.8539943 4278190080
5.6406202 -3.8191667 1.8964204 4278190080
6.1220255 -3.8243146 1.9380674 4278190080
5.206027 -4.1144609 1.7163363 4278190080
5.5801754 -4.0857539 1.7211599 4278190080
5.9877591 -4.0542083 1.7289782 4278190080
6.4032164 -3.9999695 1.731931 4278190080
7.5983925 -6.0052104 2.1281323 4278190080
8.2174292 -6.016727 2.139746 4278190080
8.9104748 -6.0331283 2.1576464 4278190080
9.6077595 -6.0017872 2.1632438 4278190080
7.8114204 -6.1735721 1.8063456 4278190080
8.5012274 -6.2245216 1.811619 4278190080
9.192502 -6.2240844 1.803803 4278190080
9.8448505 -6.1498938 1.7764585 4278190080
9.7430592 -7.7001972 1.7837875 4278190080
9.8295527 -7.1971097 1.6354771 4278190080
10.134412 -6.861835 1.5285593 4278190080
10.162388 -6.3482537 1.3846989 4278190080
10.064158 -7.9539704 1.3627468 4278190080
10.097121 -7.3930206 1.2131504 4278190080
10.089988 -6.8317561 1.0682158 4278190080
10.184363 -6.3619814 0.94126743 4278190080
10.012156 -7.9128723 0.88230222 4278190080
10.052206 -7.3601346 0.74629146 4278190080
10.112406 -6.8469353 0.6186505 4278190080
10.121256 -6.3225594 0.49453923 4278190080
10.058294 -7.9493356 0.4131988 4278190080
10.078854 -7.3796449 0.28740266 4278190080
10.124408 -6.8550615 0.16880897 4278190080
10.253659 -6.4052691 0.055706523 4278190080
10.015553 -7.915556 -0.058821302 4278190080
10.066845 -7.3708525 -0.17226024 4278190080
9.9637508 -6.7462831 -0.27684498 4278190080
9.8941174 -6.1806698 -0.37599254 4278190080
9.8228569 -7.7632632 -0.51884383 4278190080
10.073444 -7.3756847 -0.63246238 4294901760
10.098989 -6.8378515 -0.73056555 4294901760
9.0414257 -5.6480093 -0.73704517 4294901760
9.2130394 -7.2813091 -0.92048061 4278190080
9.2239704 -6.7537074 -1.0021946 4278190080
9.1822405 -6.2171364 -1.0749788 4278190080
8.6108503 -5.3790369 -1.0785772 4278190080
7.4484429 -5.8867016 -1.0971287 4278190080
7.0366874 -5.1521988 -1.0892255 4278190080
6.6779218 -4.5215054 -1.0826453 4278190080
6.3718324 -3.9803646 -1.0791445 4278190080
5.5752707 -4.4062839 -1.0875381 4278190080
5.3207479 -3.8958035 -1.0715041 4278190080
5.1730876 -3.5026083 -1.0741608 4278190080
4.9627557 -3.1001408 -1.0616007 4278190080
4.42343 -3.4959536 -1.0766512 4278190080
4.3004107 -3.1487219 -1.0686985 4278190080
4.2438383 -2.8734295 -1.0767609 4278190080
4.0680628 -2.5412428 -1.0539793 4278190080
3.6506531 -2.8852077 -1.0674204 4278190080
3.6364162 -2.6625509 -1.0776173 4278190080
3.6175323 -2.4493685 -1.0872264 4278190080
3.4765279 -2.1717219 -1.0602521 4278190080
2.8490322 -2.2516654 -0.97499782 4278190080
2.8767314 -2.1063168 -0.99259681 4278190080
2.8754265 -1.9469017 -1.0012455 4278190080
2.8803003 -1.7992697 -1.0131316 4278190080
4.7059011 -3.7663381 1.7981372 4278190080
5.0967302 -3.7800357 1.829614 4278190080
5.5590906 -3.8139198 1.8768419 4278190080
6.0356159 -3.8220208 1.9181007 4278190080
5.1814394 -4.1469321 1.7165867 4278190080
5.5518827 -4.1176038 1.7201939 4278190080
5.9611664 -4.0897717 1.728513 4278190080
6.3793759 -4.0397048 1.7321546 4278190080
7.5492015 -6.0419555 2.1246986 4278190080
8.1819286 -6.0682011 2.1401572 4278190080
8.8635864 -6.0810323 2.1552873 4278190080
9.5508356 -6.0480142 2.1587422 4278190080
7.6904278 -6.1549854 1.7870666 4278190080
8.356801 -6.1978965 1.7889123 4278190080
9.0572824 -6.2139211 1.7847176 4278190080
9.8194561 -6.2181172 1.7787277 4278190080
9.7296314 -7.7870488 1.7900434 4278190080
9.7907801 -7.2614198 1.6364084 4278190080
10.115847 -6.9401693 1.5321534 4278190080
10.150102 -6.4274964 1.3883725 4278190080
10.059418 -8.0509911 1.3687683 4278190080
10.084346 -7.479146 1.2171063 4278190080
10.102094 -6.9307342 1.0739796 4278190080
10.199039 -6.4584866 0.94626874 4278190080
9.9953489 -7.9997144 0.88513011 4278190080
10.03091 -7.4395142 0.74808526 4278190080
10.105616 -6.9331503 0.62082601 4278190080
10.15993 -6.4337206 0.49834847 4278190080
10.024936 -8.0233936 0.41384307 4278190080
10.058276 -7.4598107 0.28811568 4278190080
10.129977 -6.9498634 0.16960965 4278190080
10.255562 -6.4942789 0.055932302 4278190080
9.9652338 -7.9756117 -0.058812086 4278190080
10.05757 -7.4592867 -0.17288147 4278190080
9.9477243 -6.8248258 -0.27755803 4278190080
9.8779621 -6.2551656 -0.3768301 4278190080
9.8397827 -7.8752079 -0.52228045 4278190080
10.015163 -7.4278364 -0.63165289 4294901760
10.128454 -6.9488192 -0.7357676 4294901760
9.0327272 -5.7199254 -0.73918337 4294901760
9.2577 -7.4093413 -0.92946744 4278190080
9.2263641 -6.8428159 -1.0069977 4278190080
9.1513062 -6.2784281 -1.0758471 4278190080
8.5760021 -5.430707 -1.0783659 4278190080
7.3571167 -5.8882217 -1.0889781 4278190080
6.9945798 -5.187593 -1.0876144 4278190080
6.6598597 -4.5691237 -1.084242 4278190080
6.3196926 -4.0019107 -1.0744525 4278190080
5.5434995 -4.4367046 -1.0866305 4278190080
5.3046718 -3.9342575 -1.0731081 4278190080
5.140934 -3.5270357 -1.0719578 4278190080
4.9353275 -3.1252692 -1.0598156 4278190080
4.388092 -3.5119817 -1.073275 4278190080
4.2644715 -3.1627839 -1.06457 4278190080
4.2390389 -2.9082732 -1.0800505 4278190080
4.1027288 -2.5980306 -1.0670708 4278190080
3.6815834 -2.946532 -1.0817302 4278190080
3.5918877 -2.6639559 -1.0692456 4278190080
3.4952099 -2.3979554 -1.0548655 4278190080
3.4246943 -2.168669 -1.0484827 4278190080
2.8246062 -2.2606556 -0.97136754 4294901760
2.8575628 -2.1193373 -0.99045116 4278190080
2.9070039 -1.9944054 -1.0164831 4278190080
2.8659678 -1.8148583 -1.0119882 4278190080
4.6380348 -3.7589405 1.7809849 4278190080
5.0304193 -3.7789195 1.8140996 4278190080
5.4659739 -3.7995698 1.8532406 4278190080
5.9762888 -3.8360281 1.9066911 4278190080
5.1528883 -4.1762085 1.715585 4278190080
5.5234098 -4.149261 1.7192279 4278190080
5.9247794 -4.1184998 1.7252573 4278190080
6.342165 -4.0708747 1.7288008 4278190080
7.5317149 -6.1041517 2.1302786 4278190080
8.1445408 -6.1182899 2.1401572 4278190080
8.8108101 -6.1246705 2.1515517 4278190080
9.5118923 -6.105442 2.1583669 4278190080
7.6204119 -6.1760373 1.7795691 4278190080
8.2153902 -6.1715131 1.7667141 4278190080
8.8966017 -6.1843066 1.7605001 4278190080
9.6837893 -6.2157784 1.7610282 4278190080
9.693203 -7.8559508 1.7921761 4278190080
9.761096 -7.3326688 1.6389364 4278190080
10.106477 -7.0253291 1.5372344 4278190080
10.151436 -6.5159488 1.3939977 4278190080
10.05309 -8.147625 1.3746841 4278190080
10.078852 -7.5713706 1.2220273 4278190080
10.115 -7.0312533 1.079918 4278190080
10.219626 -6.5597186 0.9518953 4278190080
10.061557 -8.1544867 0.89540708 4278190080
10.099201 -7.5866575 0.75663579 4278190080
10.128489 -7.0406299 0.62487346 4278190080
10.121104 -6.4964795 0.4983899 4278190080
10.047729 -8.14328 0.41683888 4278190080
10.081855 -7.573627 0.29011682 4278190080
10.119164 -7.0341477 0.17014806 4278190080
10.243292 -6.5749092 0.056084357 4278190080
10.055946 -8.1499405 -0.059641462 4278190080
10.044388 -7.5454812 -0.17344747 4278190080
9.967227 -6.9285321 -0.27928314 4278190080
9.9167776 -6.3653278 -0.3797937 4278190080
9.8021431 -7.944243 -0.52286011 4278190080
9.9662046 -7.4867492 -0.63145053 4294901760
10.111035 -7.0284977 -0.73762125 4294901760
9.0553894 -5.8124242 -0.74394244 4294901760
9.2399445 -7.4886036 -0.9322806 4278190080
9.2861528 -6.9758849 -1.018176 4278190080
9.1330423 -6.3486638 -1.0782593 4278190080
8.5609293 -5.4950433 -1.08069 4278190080
7.32548 -5.9370065 -1.089667 4278190080
6.9705515 -5.2363734 -1.0888537 4278190080
6.6186781 -4.6008506 -1.0821131 4278190080
6.2850227 -4.0341964 -1.0727465 4278190080
5.5146356 -4.4693904 -1.0863279 4278190080
5.3009505 -3.9821465 -1.0772779 4278190080
5.1256695 -3.5630136 -1.0733135 4278190080
4.9500074 -3.1772842 -1.0671345 4278190080
4.3962212 -3.5629604 -1.0805902 4278190080
4.2449851 -3.1888907 -1.06457 4278190080
4.2227211 -2.9353459 -1.0804617 4278190080
4.0571203 -2.6041625 -1.0593446 4278190080
3.5998278 -2.9175155 -1.0629486 4278190080
3.5902491 -2.6970441 -1.0736639 4278190080
3.442981 -2.3933241 -1.0435151 4278190080
2.9632151 -1.9020125 -0.91075498 4294901760
2.8181849 -2.2840254 -0.97396058 4278190080
2.8814769 -2.1646047 -1.0033246 4278190080
0 -0 -0 4278190080
2.8967125 -1.8593262 -1.0268536 4278190080
4.5815492 -3.7599719 1.7681205 4278190080
4.9727268 -3.7835329 1.8016324 4278190080
5.4071136 -3.808075 1.8411717 4278190080
5.8951612 -3.835232 1.8882804 4278190080
5.1174374 -4.1997628 1.7123296 4278190080
5.5063415 -4.189537 1.7218844 4278190080
5.8962169 -4.1525364 1.7243272 4278190080
6.3211522 -4.1123705 1.7299187 4278190080
7.5001583 -6.1552072 2.1319954 4278190080
8.1045094 -6.1663709 2.1395404 4278190080
8.7658501 -6.1735363 2.1497824 4278190080
9.4693108 -6.1604772 2.1572413 4278190080
7.4994678 -6.1546407 1.7601115 4278190080
8.1303082 -6.1859999 1.7565469 4278190080
8.7955418 -6.1944475 1.7479904 4278190080
9.618125 -6.2572913 1.7560359 4278190080
9.592021 -7.8719506 1.7823657 4278190080
9.7900629 -7.4488358 1.6514434 4278190080
10.1005 -7.113492 1.5429354 4278190080
10.134579 -6.5932822 1.397212 4278190080
10.024431 -8.22682 1.377642 4278190080
10.046462 -7.643919 1.2237641 4278190080
10.08144 -7.1000686 1.080966 4278190080
10.275285 -6.6848221 0.96088201 4278190080
10.021358 -8.2242975 0.89630377 4278190080
10.082647 -7.6714506 0.75890797 4278190080
10.088364 -7.1049447 0.62507582 4278190080
10.127115 -6.5884266 0.50066715 4278190080
10.027705 -8.2295074 0.4180952 4278190080
10.051902 -7.6480579 0.29059985 4278190080
10.0799 -7.0989838 0.1702171 4278190080
10.24802 -6.6670842 0.056333169 4278190080
10.014254 -8.2184677 -0.059692148 4278190080
10.05997 -7.6541963 -0.17452428 4278190080
9.9588566 -7.0137372 -0.28024921 4278190080
9.8850737 -6.4309616 -0.38008362 4278190080
9.8845129 -8.1119919 -0.52989894 4278190080
9.9502821 -7.5707397 -0.63337308 4294901760
10.0971 -7.1110978 -0.73977387 4294901760
9.2344646 -6.0076928 -0.7616685 4294901760
9.3125019 -7.6425557 -0.94431514 4278190080
9.2709227 -7.0538445 -1.0212325 4278190080
9.1573896 -6.4492869 -1.0857855 4278190080
8.5295525 -5.5490956 -1.0810069 4278190080
7.2912169 -5.9837337 -1.0900114 4278190080
6.9193377 -5.2646251 -1.0858794 4278190080
6.5733066 -4.6293912 -1.0793191 4278190080
6.2717667 -4.0802417 -1.074737 4278190080
5.5008626 -4.514431 -1.0890509 4278190080
5.2984118 -4.0313325 -1.0817685 4278190080
5.0956535 -3.5887225 -1.071619 4278190080
4.9262953 -3.2049141 -1.066242 4278190080
4.3682022 -3.584883 -1.0790896 4278190080
4.1855431 -3.1845987 -1.0545435 4278190080
4.1846275 -2.947113 -1.0753216 4278190080
3.9993117 -2.6018438 -1.0483992 4278190080
3.6474078 -2.9933436 -1.0824009 4278190080
3.5341578 -2.688988 -1.0618041 4278190080
3.5734212 -2.5166581 -1.0877093 4278190080
2.9125359 -1.894817 -0.89873517 4294901760
2.8205419 -2.3147538 -0.97966534 4278190080
2.8742743 -2.1869109 -1.0054702 4278190080
0 -0 -0 4278190080
2.9390666 -1.9120772 -1.0460069 4278190080
4.5237527 -3.7592278 1.7546846 4278190080
4.9060354 -3.7805433 1.7858407 4278190080
5.3075771 -3.7869062 1.8151567 4278190080
5.8062067 -3.8282697 1.8672763 4278190080
5.0938058 -4.2329402 1.7130809 4278190080
5.4843745 -4.2262063 1.7230918 4278190080
5.8682508 -4.1869416 1.7236295 4278190080
6.3039374 -4.1564441 1.7321546 4278190080
6.5766053 -5.4651432 1.8789631 4278190080
8.0293131 -6.1873112 2.1296713 4278190080
8.7102451 -6.2146778 2.1454573 4278190080
9.4264126 -6.2152195 2.156116 4278190080
7.4002657 -6.1496029 1.7456521 4278190080
8.0430174 -6.1978722 1.7458713 4278190080
8.7035332 -6.2098894 1.737245 4278190080
9.5564423 -6.3009539 1.7518002 4278190080
9.2641459 -7.698483 1.7301857 4278190080
9.7779312 -7.53478 1.6571646 4278190080
10.100282 -7.2064557 1.5496275 4278190080
10.164426 -6.7018223 1.4069698 4278190080
10.007416 -8.3161383 1.3822902 4278190080
10.093192 -7.7777166 1.2352463 4278190080
10.066878 -7.1826229 1.0841098 4278190080
10.179975 -6.7120743 0.95580256 4278190080
10.036691 -8.3404665 0.90223539 4278190080
10.033014 -7.7313442 0.75872856 4278190080
10.079537 -7.1916552 0.62725133 4278190080
10.105683 -6.6630912 0.50161946 4278190080
10.035442 -8.3394289 0.4205434 4278190080
10.053883 -7.7474256 0.29202592 4278190080
10.111849 -7.2147093 0.17150097 4278190080
10.17102 -6.7061696 0.05613504 4278190080
9.9820957 -8.2950983 -0.059802733 4278190080
10.048456 -7.7432437 -0.17514551 4278190080
9.970974 -7.1141958 -0.28181329 4278190080
9.8788052 -6.5135012 -0.38137215 4278190080
9.8537645 -8.1884546 -0.5309341 4278190080
9.9613914 -7.6761522 -0.63706636 4294901760
10.093906 -7.2019072 -0.74276358 4294901760
9.3231926 -6.1471624 -0.7720834 4294901760
9.2661991 -7.7001896 -0.94439328 4278190080
9.2448263 -7.1239743 -1.0231538 4278190080
9.1346598 -6.5174942 -1.0878117 4278190080
8.513607 -5.6133695 -1.0833309 4278190080
7.2421393 -6.0182004 -1.0881745 4278190080
6.8979082 -5.3154616 -1.0876144 4278190080
6.5520387 -4.6748176 -1.0805166 4278190080
6.2895846 -4.1469808 -1.0821303 4278190080
5.482182 -4.5556798 -1.0908662 4278190080
5.2813945 -4.0697918 -1.0833724 4278190080
5.0919895 -3.6330867 -1.0755163 4278190080
4.876965 -3.2155828 -1.0598156 4278190080
4.3234601 -3.5927849 -1.0734625 4278190080
4.2109694 -3.2449322 -1.0659461 4278190080
4.1760254 -2.9795549 -1.0777888 4278190080
3.9832718 -2.6263342 -1.0483992 4278190080
3.6387177 -3.0237656 -1.0853076 4278190080
3.5337706 -2.7230895 -1.0666877 4278190080
3.4978759 -2.4957016 -1.0693554 4278190080
2.8685243 -1.8913356 -0.88871866 4294901760
2.7951438 -2.3227577 -0.97577572 4278190080
2.86538 -2.208034 -1.0070794 4278190080
0 -0 -0 4278190080
2.8944783 -1.908448 -1.0342863 4278190080
4.4544072 -3.7480454 1.7366745 4278190080
4.8509316 -3.7857468 1.7742049 4278190080
5.2623796 -3.8036003 1.8076472 4278190080
5.731214 -3.8294837 1.8506807 4278190080
5.0677371 -4.2641158 1.7130809 4278190080
5.4545145 -4.256793 1.7218844 4278190080
5.8408732 -4.2217302 1.7231644 4278190080
6.26859 -4.1885481 1.7294714 4278190080
7.2880449 -6.1323361 2.0929353 4278190080
7.9256196 -6.1852837 2.1121948 4278190080
8.5535469 -6.1824265 2.1161647 4278190080
9.3227625 -6.2292852 2.1411107 4278190080
7.3157144 -6.1556177 1.7345845 4278190080
7.9240351 -6.1840472 1.7282482 4278190080
8.6492672 -6.2516117 1.7340373 4278190080
9.4863682 -6.338604 1.7460517 4278190080
9.0289001 -7.5971336 1.6949252 4278190080
9.7729254 -7.6269517 1.6642163 4278190080
10.101713 -7.3014269 1.5566916 4278190080
10.134677 -6.7717905 1.408577 4278190080
10.018593 -8.4298849 1.3909526 4278190080
10.083727 -7.8695064 1.2399741 4278190080
10.100931 -7.3008618 1.0925808 4278190080
10.159322 -6.7882576 0.95775622 4278190080
10.04105 -8.448781 0.90727043 4278190080
10.071162 -7.8597007 0.76524615 4278190080
10.067597 -7.2767682 0.62927502 4278190080
10.103655 -6.7510624 0.50356549 4278190080
9.9970846 -8.411788 0.42109102 4278190080
10.030588 -7.8280358 0.29273897 4278190080
10.049562 -7.2637329 0.17119725 4278190080
10.142152 -6.7767854 0.056204155 4278190080
10.019004 -8.4302301 -0.060332611 4278190080
10.061453 -7.8521233 -0.17620851 4278190080
9.9692669 -7.2056961 -0.28300938 4278190080
9.9491806 -6.6478457 -0.38565648 4278190080
9.8239765 -8.2661304 -0.53205198 4278190080
9.9770908 -7.7862854 -0.64111376 4294901760
10.064898 -7.2748165 -0.7438997 4294901760
9.2877874 -6.2059159 -0.77229035 4294901760
9.2225914 -7.7601094 -0.94478393 4278190080
9.2252855 -7.1995649 -1.025861 4278190080
9.1767788 -6.6328931 -1.0976536 4278190080
8.3739977 -5.5953398 -1.0699147 4278190080
7.2704458 -6.117528 -1.0980473 4278190080
6.8682928 -5.3601289 -1.0881102 4278190080
6.5304604 -4.7201576 -1.0817139 4278190080
6.2393298 -4.1689968 -1.0778649 4278190080
5.4480748 -4.5841408 -1.089656 4278190080
5.2609921 -4.1057649 -1.0843346 4278190080
5.0072999 -3.6192312 -1.0622991 4278190080
4.8538704 -3.2432601 -1.0591016 4278190080
4.2457161 -3.5724475 -1.0595824 4278190080
4.1963902 -3.2749319 -1.0673223 4278190080
4.0997653 -2.963273 -1.0627795 4278190080
4.0815873 -2.7272358 -1.07866 4278190080
3.5678902 -3.0021083 -1.0696564 4278190080
3.5775671 -2.7919922 -1.0850588 4278190080
3.4463196 -2.4909685 -1.0582465 4278190080
2.9156287 -1.9481654 -0.90699881 4294901760
2.8126159 -2.3666024 -0.98692596 4278190080
2.8472209 -2.222018 -1.0054702 4278190080
0 -0 -0 4278190080
2.9241457 -1.9538562 -1.0491515 4278190080
4.4181962 -3.7641203 1.7315289 4278190080
4.7823811 -3.7796929 1.7575821 4278190080
5.1814227 -3.7937038 1.7878007 4278190080
5.6428308 -3.8207173 1.8296766 4278190080
5.0385299 -4.2926188 1.7120793 4278190080
5.419157 -4.2829609 1.7189865 4278190080
5.8179984 -4.259788 1.7240946 4278190080
6.2468071 -4.2296648 1.7305894 4278190080
7.2287197 -6.1585703 2.0867114 4278190080
7.8145776 -6.1761503 2.0926621 4278190080
8.4521627 -6.1884556 2.1004369 4278190080
9.1761894 -6.2131267 2.1161637 4278190080
7.2126455 -6.144876 1.719054 4278190080
7.8573327 -6.2099414 1.7219785 4278190080
8.629859 -6.3185596 1.7378864 4278190080
9.4595747 -6.4050045 1.7483207 4278190080
8.8668346 -7.5541763 1.6731716 4278190080
9.7586012 -7.7125845 1.6698045 4278190080
10.090349 -7.3878927 1.5618967 4278190080
10.104451 -6.8416457 1.4101841 4278190080
10.040859 -8.5543976 1.4013052 4278190080
10.065705 -7.9553003 1.2437372 4278190080
10.080057 -7.3803573 1.0952007 4278190080
10.124083 -6.854938 0.95838141 4278190080
9.9958553 -8.5160561 0.90789121 4278190080
10.076784 -7.964056 0.76937199 4278190080
10.087224 -7.3856049 0.63332248 4278190080
10.095134 -6.8353372 0.50522166 4278190080
9.9886494 -8.5099163 0.42292717 4278190080
10.089039 -7.9737415 0.29586717 4278190080
10.097583 -7.393189 0.17278484 4278190080
10.119424 -6.8517838 0.056310128 4278190080
9.9876404 -8.5090561 -0.060457014 4278190080
10.049954 -7.9428511 -0.17685735 4278190080
9.9805231 -7.3074818 -0.28459647 4278190080
9.95786 -6.7423902 -0.38758928 4278190080
9.8719435 -8.4104881 -0.53743464 4278190080
10.067815 -7.9569674 -0.65006876 4294901760
10.04826 -7.3570762 -0.74599248 4294901760
9.2891855 -6.2896357 -0.77560109 4294901760
9.1960516 -7.8346558 -0.94697213 4278190080
9.2629995 -7.3208919 -1.0350306 4278190080
9.1399231 -6.6920156 -1.0981361 4278190080
8.4638433 -5.7308025 -1.0858663 4278190080
7.2350411 -6.1639562 -1.0983917 4278190080
6.8080268 -5.3806362 -1.0837727 4278190080
6.5045743 -4.7624812 -1.0822463 4278190080
6.2275658 -4.2166367 -1.080282 4278190080
5.4138246 -4.6123548 -1.0884458 4278190080
5.2171154 -4.1232796 -1.0804856 4278190080
4.9857936 -3.6504695 -1.0624685 4278190080
4.7833648 -3.2387793 -1.048034 4278190080
4.2042761 -3.5818696 -1.0547055 4278190080
4.1631393 -3.2902832 -1.0639801 4278190080
4.0246534 -2.9467473 -1.0479759 4278190080
4.0372791 -2.7336104 -1.0713631 4278190080
3.553854 -3.0277367 -1.070998 4278190080
3.5504489 -2.8060513 -1.0820357 4278190080
3.4693356 -2.540158 -1.0700799 4278190080
2.9324799 -1.9855595 -0.91601372 4294901760
2.7936306 -2.3800578 -0.9853701 4278190080
2.8358006 -2.2412384 -1.0062748 4278190080
0 -0 -0 4278190080
2.9422545 -1.9921778 -1.0600147 4278190080
4.3594618 -3.7604895 1.7175212 4278190080
4.7043366 -3.7651365 1.7373577 4278190080
5.1162629 -3.794436 1.7733181 4278190080
5.5699058 -3.8213935 1.8135996 4278190080
5.0113626 -4.3228216 1.7118288 4278190080
5.3897448 -4.3137059 1.7180204 4278190080
5.7808146 -4.2872953 1.720839 4278190080
6.219933 -4.2673635 1.7303659 4278190080
6.8986664 -5.9508176 2.0019381 4278190080
7.5175204 -6.0166807 2.0229616 4278190080
8.3045645 -6.1590142 2.0731099 4278190080
9.0115404 -6.1826258 2.0869029 4278190080
7.1546898 -6.1716642 1.7142344 4278190080
7.8260059 -6.2635784 1.7235036 4278190080
8.5893412 -6.3702168 1.7375658 4278190080
9.4217262 -6.4640455 1.7486234 4278190080
8.7738457 -7.5683546 1.6643565 4278190080
9.7691288 -7.8187656 1.6797835 4278190080
10.095039 -7.4869065 1.5697043 4278190080
10.12044 -6.943418 1.4183348 4278190080
10.021313 -8.6444254 1.4059534 4278190080
10.060997 -8.0523634 1.2492371 4278190080
10.063388 -7.4634318 1.0983446 4278190080
10.122112 -6.9445653 0.96221054 4278190080
10.050681 -8.6697578 0.91768533 4278190080
10.019156 -8.0188751 0.76871425 4278190080
10.103484 -7.4931693 0.63721812 4278190080
10.06289 -6.903934 0.50571853 4278190080
10.027063 -8.6493855 0.42679277 4278190080
10.052411 -8.0454912 0.29623517 4278190080
10.076122 -7.4728765 0.17319898 4278190080
10.103579 -6.9318495 0.056457572 4278190080
10.039736 -8.6603165 -0.061092872 4278190080
10.033816 -8.0306091 -0.17743716 4278190080
9.968421 -7.3930006 -0.28553954 4278190080
9.9311371 -6.8135414 -0.38816911 4278190080
9.9116964 -8.5498686 -0.54244465 4278190080
10.060128 -8.0516682 -0.65275013 4294901760
10.01736 -7.4292955 -0.74706876 4294901760
9.2660484 -6.3572378 -0.77691156 4294901760
9.1764908 -7.915678 -0.94994158 4278190080
9.2287931 -7.3863053 -1.0362532 4278190080
9.0819006 -6.7355199 -1.0961097 4278190080
8.4014616 -5.7640634 -1.0823802 4278190080
7.2076144 -6.2173171 -1.0999988 4278190080
6.8128448 -5.4526901 -1.0898453 4278190080
6.4943347 -4.8164721 -1.0854394 4278190080
6.2089219 -4.2598085 -1.0815616 4278190080
5.3854218 -4.6454864 -1.0884458 4278190080
5.1917171 -4.1552138 -1.0804856 4278190080
4.8564353 -3.601737 -1.0395924 4278190080
4.763402 -3.2680686 -1.048034 4278190080
4.225358 -3.6448107 -1.0655847 4278190080
4.1543546 -3.3249559 -1.0669291 4278190080
4.096107 -3.0378454 -1.0714151 4278190080
3.9946578 -2.7406495 -1.0644953 4278190080
3.5388992 -3.0526686 -1.0721158 4278190080
3.5377204 -2.8314302 -1.083431 4278190080
3.4583609 -2.5648661 -1.0715289 4278190080
2.8779309 -1.9744869 -0.90274179 4294901760
